ply
format ascii 1.0
element vertex 967
property float x
property float y
property float z
property uchar red
property uchar green
property uchar blue
element face 0
property list uchar int vertex_indices
end_header
-113.145477714512 -58.582570144239 604 191 124 138
-112.20884296522 -56.4641272830135 599 192 127 141
-111.834189065503 -54.6475655512064 597 189 122 136
-111.272208215928 -52.7531019823026 594 193 126 142
-110.710227366352 -50.8750005617498 591 192 127 143
-109.398938717343 -48.6798377433604 584 191 126 142
-107.3383422689 -46.2003378238363 573 185 118 132
-105.652399720174 -43.9366361224585 564 189 120 133
-105.465072770315 -42.3234193651046 563 166 101 105
-105.465072770315 -40.7881044448472 563 97 39 40
-106.214380569749 -39.5316725762744 567 90 34 33
-106.401707519608 -38.0524432953124 568 80 33 30
-106.589034469466 -36.5677599649002 569 81 34 31
-106.401707519608 -34.9545432075463 568 81 34 31
-106.401707519608 -33.4055931636633 568 81 34 31
-106.589034469466 -31.9127287590756 569 81 34 31
-106.776361419324 -30.4144103050376 570 82 35 32
-106.963688369183 -28.9106378015494 571 85 37 31
-106.963688369183 -27.3535066834909 571 84 38 32
-106.963688369183 -25.7963755654324 571 86 40 33
-107.151015319041 -24.2816949630435 572 84 38 31
-107.151015319041 -22.7218368202599 572 84 38 32
-107.3383422689 -21.1989751436956 573 87 39 33
-107.525669218758 -19.670659417681 574 86 38 32
-107.900323118475 -18.1684320589852 576 84 39 35
-107.900323118475 -16.597665817301 576 82 41 37
-107.525669218758 -14.9747228409792 574 56 25 20
-107.712996168617 -13.4327719913389 575 92 45 42
-107.900323118475 -11.8853670922483 576 70 24 18
-108.462303968051 -10.3683227299941 579 65 22 16
-108.087650068334 -8.75901487729804 577 64 21 15
-108.087650068334 -7.18552161088866 577 60 22 15
-107.900323118475 -5.60230212551138 576 64 21 15
-108.087650068334 -4.0385350780699 577 62 19 13
-108.087650068334 -2.46504181166053 577 63 20 14
-108.274977018192 -0.893093690043613 578 65 22 16
-108.274977018192 0.68312660109091 578 61 20 14
-108.462303968051 2.26325579688326 579 62 21 15
-108.649630917909 3.84883904212591 580 61 23 16
-108.649630917909 5.43051338271072 580 60 22 15
-108.274977018192 6.988007765629 578 59 21 14
-108.087650068334 8.54941105320511 577 61 23 16
-108.649630917909 10.1755364044652 580 61 20 14
-108.836957867768 11.7774817980587 581 61 21 13
-109.211611767485 13.4078793188364 583 65 23 15
-110.522900416494 32.8762009170087 590 149 105 105
-110.148246516777 34.3682467065234 588 220 197 195
-109.77359261706 35.8493843971376 586 217 194 190
-109.024284817626 37.1918070916291 582 221 198 194
-109.024284817626 38.7789354816642 582 222 200 192
-108.462303968051 40.1579913775153 579 219 198 188
-108.462303968051 41.736938693375 579 224 201 187
-107.712996168617 43.0166398191881 575 217 195 179
-107.712996168617 44.5846790361472 575 220 198 182
-107.3383422689 45.9921870591825 573 220 198 182
-107.151015319041 47.4717796050042 572 221 198 184
-106.776361419324 48.8601984549634 570 222 199 185
-106.401707519608 50.237709206022 568 222 201 189
-106.401707519608 51.7866592499051 568 220 199 189
-106.214380569749 53.2417085732005 567 216 197 187
-106.401707519608 54.8845593376712 568 211 192 182
-106.027053619891 56.2347998414784 566 208 191 181
-105.839726670032 57.6762140411481 565 204 187 177
-105.465072770315 59.0073653718792 563 203 186 176
-105.652399720174 60.6502161363499 564 203 186 176
-105.465072770315 62.0779952123939 563 200 183 173
-105.277745820457 63.5003202389875 562 199 182 172
-105.090418870598 64.9171912161309 561 195 178 168
-105.090418870598 66.4470520869379 561 187 170 160
-105.277745820457 68.098083925584 562 186 169 157
-105.277745820457 69.6306718211162 562 178 161 149
-105.277745820457 71.1632597166484 562 177 159 144
-105.090418870598 72.566495570166 561 174 156 141
-105.277745820457 74.2284355077128 562 169 151 136
-105.277745820457 75.761023403245 562 157 136 122
-105.277745820457 77.2936112987772 562 158 137 123
-105.652399720174 79.1067194761396 564 151 130 116
-106.214380569749 81.0737229180429 567 140 119 105
-106.401707519608 82.7656601275663 568 132 114 98
-106.963688369183 84.7599338167211 571 133 115 99
-107.900323118475 87.0729061338582 576 132 114 98
-110.148246516777 90.4904155500329 588 130 112 96
-112.20884296522 93.8167512703451 599 123 105 90
-114.269439413663 97.2030815346105 610 124 109 94
-115.206074162955 99.6769483105313 615 124 110 100
-115.580728062672 101.683675243379 617 121 111 102
-115.955381962389 103.701310275128 619 118 112 105
-115.955381962389 105.389338579993 619 115 110 104
-116.517362811965 107.596320197709 622 106 103 97
-117.07934366154 109.819663963776 625 90 93 89
-117.453997561257 111.880931391127 627 82 85 81
-118.015978410832 114.134272429171 630 68 75 71
-118.577959260408 116.403975615565 633 92 91 85
-119.139940109983 118.690040950311 636 90 89 83
-118.952613160125 120.235082089536 635 108 105 99
-118.577959260408 121.582595568618 633 65 42 38
-118.765286210266 123.503602855054 634 59 28 23
-119.327267059842 125.825119511226 637 61 29 22
-123.261133006869 131.76758264338 658 57 28 24
-114.63655350779 -63.6183820258045 621 168 148 154
-112.790554256457 -60.9277193225115 611 179 117 129
-112.421354406191 -59.0675251951019 609 188 123 137
-111.129154930257 -56.7469192393558 602 187 122 136
-110.390755229724 -54.7391025119286 598 190 123 137
-109.467755604057 -52.6642920463055 593 190 123 137
-109.098555753791 -50.8750005617498 591 192 127 141
-108.175556128124 -48.8465495164541 586 191 126 142
-106.883356652191 -46.6841109947665 579 186 119 133
-104.668157550591 -44.1703416337481 567 189 118 131
-103.929757850058 -42.3234193651046 563 169 102 106
-103.745157924925 -40.715656657201 562 111 51 53
-104.298957700325 -39.3922310504321 565 89 33 32
-104.483557625458 -37.9184558189205 566 80 33 30
-104.668157550591 -36.4392265379586 567 78 33 29
-104.852757475725 -34.9545432075463 568 81 36 32
-105.037357400858 -33.4644058276838 569 80 35 31
-105.037357400858 -31.9127287590756 569 80 33 30
-105.221957325991 -30.4144103050376 570 80 33 30
-105.406557251124 -28.9106378015494 571 83 36 33
-105.221957325991 -27.3056021183709 570 82 36 30
-105.221957325991 -25.7511980250376 570 84 38 32
-105.221957325991 -24.1967939317042 570 83 37 31
-105.406557251124 -22.6821133293154 571 82 36 30
-105.775757101391 -21.1989751436956 573 82 35 32
-105.960357026524 -19.670659417681 574 83 36 33
-106.144956951658 -18.1368896422162 575 85 40 36
-106.329556876791 -16.597665817301 576 80 39 35
-106.329556876791 -15.0268995756168 576 49 22 17
-106.329556876791 -13.4561333339325 576 79 40 36
-106.144956951658 -11.8647327743798 575 66 23 19
-106.514156801924 -10.3325081437074 577 63 20 16
-106.144956951658 -8.72865434046165 575 61 20 16
-106.329556876791 -7.17306836719561 576 58 21 17
-106.144956951658 -5.59257590654348 575 60 21 17
-106.329556876791 -4.03153588382715 576 60 22 15
-106.329556876791 -2.46076964214292 576 58 20 13
-108.913955828657 31.2672563291724 590 102 34 34
-109.467755604057 33.0433680403155 593 110 50 52
-109.283155678924 34.6020443031665 592 217 193 193
-108.544755978391 35.9717372449094 588 217 194 192
-107.621756352724 37.2557105402402 583 222 199 195
-107.252556502458 38.712305008328 581 220 198 192
-107.067956577324 40.2273488755767 580 221 200 190
-106.883356652191 41.736938693375 579 225 202 188
-106.329556876791 43.0914513666998 576 222 199 185
-106.329556876791 44.662217608384 576 221 198 184
-105.775757101391 45.9921870591825 573 224 201 187
-105.775757101391 47.5547722266913 573 220 197 183
-105.406557251124 48.9459181013756 571 224 201 187
-105.221957325991 50.4146025482967 570 220 199 189
-104.852757475725 51.7866592499051 568 211 192 182
-104.852757475725 53.3356092937881 568 210 191 181
-104.852757475725 54.8845593376712 568 208 189 179
-105.037357400858 56.5328641515922 569 204 187 175
-104.852757475725 57.9824594254373 568 202 185 173
-104.298957700325 59.2169830108557 565 200 184 174
-104.298957700325 60.7577519805633 565 198 182 172
-103.929757850058 62.0779952123939 563 196 179 169
-104.114357775191 63.7263000263149 564 187 170 158
-103.929757850058 65.1486250529085 563 187 170 158
-103.929757850058 66.6839399731658 563 186 167 155
-103.929757850058 68.2192548934232 563 182 163 151
-103.929757850058 69.7545698136805 563 178 160 145
-104.114357775191 71.4165097512272 564 169 151 136
-104.298957700325 73.0839037382243 565 164 146 131
-104.114357775191 74.4925936411922 564 165 147 132
-104.114357775191 76.0306355861747 564 160 139 125
-104.114357775191 77.5686775311571 564 147 129 114
-104.668157550591 79.527499898885 567 145 127 111
-105.037357400858 81.3596972493235 569 141 120 106
-105.591157176258 83.348516889028 572 130 109 95
-106.514156801924 85.6505811072646 577 128 107 93
-107.990956202991 88.4334202921998 585 131 111 95
-110.575355154857 92.1832634599825 599 130 110 94
-112.605954331324 95.5395964522713 610 124 106 91
-113.713553882124 98.1591774185575 616 117 102 89
-114.267353657524 100.325253665397 619 94 91 84
-115.005753358057 102.672495424028 623 116 110 103
-115.19035328319 104.538962215961 624 111 106 100
-115.19035328319 106.240625644452 624 102 105 101
-115.374953208324 108.11527351056 625 104 103 99
-116.113352908857 110.522509813145 629 85 84 80
-116.667152684257 112.773123826463 632 83 84 80
-117.40555238479 115.221265499925 636 85 88 84
-118.143952085323 117.691223371188 640 80 87 83
-118.697751860723 119.996377879009 643 89 92 88
-118.328552010457 121.371161605343 641 101 100 94
-117.774752235057 122.542963622083 638 45 28 23
-117.774752235057 124.282805396726 638 56 27 22
-118.882351785857 127.207813132229 644 59 27 20
-123.312749989056 133.770129492063 668 57 28 24
-113.670562755107 -64.028162264296 625 150 133 138
-111.669960850617 -61.2268734272046 614 178 116 128
-111.306215049801 -59.3584982256197 612 189 124 138
-110.033104746944 -57.0297111956981 605 189 124 138
-108.941867344495 -54.8306394726509 599 192 126 138
-107.850629942046 -52.6642920463055 593 189 123 135
-107.486884141229 -50.8750005617498 591 201 134 148
-106.759392539597 -48.929905403001 587 193 126 142
-105.850028037556 -46.9259975802316 582 188 119 132
-103.303807431841 -44.2482434708447 568 184 113 126
-102.576315830209 -42.398594177476 564 173 104 108
-102.394442929801 -40.7881044448472 563 115 53 55
-102.758188730617 -39.3922310504321 565 86 30 29
-102.758188730617 -37.8514620807245 565 78 31 28
-102.940061631025 -36.3749598244877 566 79 34 30
-103.121934531433 -34.8930035188006 567 79 34 30
-103.667553232658 -33.5232184917043 570 79 34 30
-103.667553232658 -31.968814398371 570 79 34 30
-103.667553232658 -30.4144103050376 570 78 33 29
-103.667553232658 -28.8600062117043 570 80 35 31
-103.48568033225 -27.257697553251 569 81 36 30
-103.667553232658 -25.7511980250376 570 81 36 30
-103.667553232658 -24.1967939317042 570 80 35 29
-103.849426133066 -22.6821133293154 571 82 36 30
-104.213171933882 -21.1989751436956 573 82 35 32
-104.39504483429 -19.670659417681 574 81 34 31
-104.576917734699 -18.1368896422162 575 81 36 32
-105.122536435923 -16.6552966013888 578 79 38 34
-104.940663535515 -15.0529879429355 577 45 23 17
-106.031900937964 18.1774455631171 583 77 25 16
-106.39564673878 19.8351133311463 585 80 26 17
-106.759392539597 21.503689198076 587 82 26 15
-106.941265440005 23.1438129378215 588 82 26 17
-107.123138340413 24.7893907270174 589 85 28 19
-106.759392539597 26.3059797390585 587 97 34 23
-106.577519639189 27.8592019524592 586 102 36 28
-106.759392539597 29.5075067663802 587 105 39 31
-107.305011240821 31.2672563291724 590 105 37 37
-107.668757041638 32.9876456658799 592 93 25 25
-107.486884141229 34.5435949040057 591 216 192 192
-106.759392539597 35.9105608210235 587 219 195 195
-106.031900937964 37.2557105402402 583 224 201 197
-105.850028037556 38.7789354816642 582 223 201 195
-105.668155137148 40.296706373638 581 222 201 191
-105.668155137148 41.881107738948 581 223 200 186
-105.304409336331 43.3158860092347 579 223 200 186
-105.122536435923 44.8172947528576 578 222 199 185
-104.576917734699 46.1527182531063 575 223 200 186
-104.39504483429 47.6377648483783 574 219 196 182
-104.213171933882 49.1173573942 573 218 195 181
-104.213171933882 50.6799425617088 573 219 198 186
-103.667553232658 51.9690066416301 570 211 192 180
-103.48568033225 53.4295100143758 569 205 186 176
-103.121934531433 54.7879315923584 567 204 185 175
-103.303807431841 56.4335093815543 568 202 183 171
-103.48568033225 58.0845412202004 569 199 182 172
-103.121934531433 59.4266006498321 567 194 178 168
-102.940061631025 60.8652878247767 566 194 179 166
-102.576315830209 62.1882580813324 564 189 172 160
-102.576315830209 63.7263000263149 564 185 168 156
-102.576315830209 65.2643419712973 564 184 167 155
-102.758188730617 66.9208278593938 565 183 164 152
-102.576315830209 68.3404258612623 564 177 158 146
-102.758188730617 70.002365798809 565 170 152 137
-102.576315830209 71.4165097512272 564 163 145 130
-102.940061631025 73.2132557802388 566 155 137 122
-102.940061631025 74.7567517746716 566 153 135 120
-103.303807431841 76.5698599520341 568 154 136 121
-103.121934531433 77.9812768797271 567 145 127 111
-103.849426133066 80.0885404625456 571 138 120 104
-104.39504483429 82.074633077525 574 137 119 104
-105.304409336331 84.3685162215861 579 132 111 97
-107.123138340413 87.4318756883515 589 126 105 91
-108.759994444087 90.3986074098042 598 130 107 93
-110.760596348576 93.7222161053913 609 138 115 101
-111.851833751026 96.3227078986014 615 117 96 84
-112.761198253066 98.7965746745222 620 58 30 21
-113.670562755107 101.297711697694 625 103 107 100
-114.216181456332 103.496512241235 628 121 116 110
-114.579927257148 105.54414454496 630 76 75 69
-114.39805435674 107.091912708911 629 99 102 98
-114.579927257148 108.980195698644 630 93 94 90
-114.761800157556 110.873932737829 631 72 73 69
-115.853037560005 113.665316261799 637 76 79 75
-117.308020763271 116.851755106056 645 85 88 84
-118.035512364903 119.346256199845 649 84 87 83
-118.217385265312 121.302714807708 650 97 96 92
-117.671766564087 122.507241121149 647 99 98 92
-117.853639464495 124.463699729012 648 43 26 21
-118.763003966536 127.204814927997 653 0 0 0
-120.763605871026 131.158366335093 664 0 0 0
-112.861901680306 -64.5403875624104 630 148 133 138
-110.71215117211 -61.6257455667955 618 179 118 130
-109.995567669378 -59.5524802459648 614 186 121 135
-108.920692415279 -57.3125031520404 608 190 125 139
-107.129233658449 -54.7391025119286 598 192 126 138
-106.233504280034 -52.6642920463055 593 189 123 135
-105.337774901619 -50.6167518279338 588 197 128 142
-104.80033727457 -48.7631936299073 585 192 123 139
-104.083753771838 -46.8453687184099 581 191 120 134
-101.754857387958 -44.2482434708447 568 186 115 128
-101.038273885226 -42.398594177476 564 184 112 122
-100.859128009543 -40.7881044448472 563 124 60 62
-101.217419760909 -39.3922310504321 565 90 32 31
-101.396565636592 -37.9184558189205 566 78 31 28
-101.575711512275 -36.4392265379586 567 78 35 31
-101.575711512275 -34.8930035188006 567 76 33 29
-102.113149139324 -33.5232184917043 570 76 33 29
-102.113149139324 -31.968814398371 570 80 35 31
-102.113149139324 -30.4144103050376 570 80 35 31
-101.934003263641 -28.8093746218592 569 80 35 29
-101.934003263641 -27.257697553251 569 79 34 28
-102.113149139324 -25.7511980250376 570 79 34 28
-102.113149139324 -24.1967939317042 570 80 35 29
-102.292295015007 -22.6821133293154 571 81 35 29
-102.650586766374 -21.1989751436956 573 82 35 32
-102.650586766374 -19.6363899761868 573 82 35 32
-103.00887851774 -18.1368896422162 575 83 36 34
-103.904607896155 -16.7129273854767 580 79 37 35
-104.442045523204 -15.2095181468482 583 45 22 18
-103.725462020472 5.4211504286026 579 68 23 17
-104.083753771838 7.02427770212881 581 68 23 17
-104.262899647521 8.62349607099718 582 70 24 18
-104.262899647521 10.2106244610323 582 70 24 17
-104.442045523204 11.8180239040761 583 74 26 19
-104.80033727457 13.4538754743041 585 75 25 16
-104.80033727457 15.0491849385146 585 77 27 18
-104.80033727457 16.6444944027252 585 78 26 17
-104.80033727457 18.2398038669357 585 80 26 17
-105.158629025936 19.9029256844151 587 81 27 18
-105.337774901619 21.5403223994356 588 85 28 17
-105.516920777302 23.1831731639063 589 88 29 18
-105.696066652985 24.8314779778273 590 96 33 22
-105.516920777302 26.3956082901285 589 98 32 22
-105.337774901619 27.9542845529795 588 104 38 30
-105.337774901619 29.5577750913655 588 106 38 30
-105.875212528668 31.3202516788829 591 109 37 37
-106.412650155717 33.0990904147511 594 94 23 26
-105.875212528668 34.5435949040057 591 230 206 206
-105.337774901619 35.9717372449094 588 221 197 197
-104.80033727457 37.3835174374623 585 225 202 198
-104.442045523204 38.8455659550004 583 221 201 195
-104.262899647521 40.3660638716993 582 222 200 192
-104.083753771838 41.881107738948 581 225 202 190
-103.904607896155 43.3906975567463 580 223 200 186
-103.546316144789 44.8172947528576 578 222 199 185
-103.188024393423 46.2329838500682 576 222 199 185
-103.00887851774 47.7207574700654 575 218 195 181
-103.00887851774 49.2887966870245 575 218 195 181
-102.829732642057 50.7683892328462 574 215 194 180
-102.292295015007 52.0601803374926 571 213 192 180
-101.934003263641 53.4295100143758 569 204 185 173
-101.754857387958 54.8845593376712 568 201 182 172
-101.934003263641 56.5328641515922 569 202 183 171
-102.113149139324 58.1866230149635 570 195 178 166
-101.934003263641 59.6362182888086 569 194 177 167
-101.754857387958 61.0803595132034 568 191 174 162
-101.217419760909 62.2985209502709 565 188 171 159
-101.217419760909 63.8392899199785 565 183 166 154
-101.396565636592 65.495775808075 566 181 162 150
-101.396565636592 67.0392718025078 566 177 158 146
-101.396565636592 68.5827677969405 566 171 154 142
-101.217419760909 70.002365798809 565 159 141 126
-101.575711512275 71.7963848030955 567 160 142 127
-101.934003263641 73.6013119062825 569 152 134 119
-101.934003263641 75.1529889748907 569 148 130 115
-102.292295015007 76.9742782264286 571 140 122 107
-102.47144089069 78.6689424606771 572 138 120 105
-103.546316144789 81.0703614489516 578 142 124 109
-104.442045523204 83.3615175682876 583 132 114 99
-106.054358404351 86.2628006963367 592 0 0 0
-108.024963036864 89.5100526996197 603 125 104 90
-109.816421793695 92.6661310070401 613 0 0 0
-110.353859420744 94.7994829571774 616 119 94 80
-111.249588799159 97.2624416341975 621 56 26 15
-112.50360992894 100.071369186451 628 50 19 10
-113.220193431672 102.432246068709 632 115 121 114
-113.757631058721 104.650135785325 635 126 125 119
-114.474214561453 107.05191803846 639 68 71 67
-114.832506312819 109.135001663612 641 114 119 115
-115.369943939868 111.401977825281 644 70 75 71
-115.369943939868 113.158181748275 644 57 60 56
-116.982256821016 116.520332054874 653 62 65 61
-118.057132075114 119.388072271149 659 70 75 71
-118.41542382648 121.552966638055 661 67 72 68
-118.236277950797 123.168910420134 660 95 98 94
-117.877986199431 124.590053566795 658 111 110 104
-118.41542382648 126.96065666802 661 41 24 19
-119.490299080578 129.93202382385 667 59 30 25
-123.252362469921 135.89903017853 688 0 0 0
-111.49671380538 -64.7452776816561 632 147 136 141
-109.026849891969 -61.6257455667955 618 176 117 129
-107.968336786222 -59.3584982256197 612 186 124 136
-106.733404829517 -57.0297111956981 605 190 125 139
-105.145635170896 -54.5560285904841 596 192 126 138
-104.439959767064 -52.5754821103084 592 187 118 131
-103.557865512275 -50.5306689166618 587 195 126 140
-103.381446661317 -48.8465495164541 586 196 127 143
-102.499352406528 -46.8453687184099 581 188 117 131
-100.382326195033 -44.3261453079412 569 183 112 125
-99.6766507912017 -42.4737689898474 565 185 113 123
-99.3238130892859 -40.7881044448472 563 140 74 76
-99.8530696421596 -39.4619518133533 566 90 32 31
-99.8530696421596 -37.9184558189205 566 77 30 27
-100.029488493117 -36.4392265379586 567 76 33 29
-99.8530696421596 -34.831463830055 566 76 33 29
-100.205907344075 -33.4055931636633 568 76 33 29
-100.382326195033 -31.9127287590756 569 77 34 30
-100.558745045991 -30.4144103050376 570 76 33 27
-100.735163896949 -28.9106378015494 571 78 35 29
-100.558745045991 -27.3056021183709 570 80 35 29
-100.735163896949 -25.7963755654324 571 79 35 27
-100.735163896949 -24.2392444473739 571 82 36 30
-101.088001598865 -22.7615603112044 573 82 36 30
-101.088001598865 -21.1989751436956 573 81 34 31
-101.088001598865 -19.6363899761868 573 81 34 32
-101.264420449823 -18.1053472254471 574 79 33 31
-102.499352406528 -16.7417427775206 581 78 36 34
-102.32293355557 -15.1312530448919 580 51 22 18
-101.44083930078 -4.02453668958439 575 70 24 18
-101.617258151738 -2.46076964214292 576 73 25 19
-102.32293355557 -0.896183979628539 580 74 23 18
-102.499352406528 0.68667224088896 581 74 23 18
-102.32293355557 2.26716470154109 580 77 25 18
-102.146514704612 3.84220311274293 579 78 26 19
-102.32293355557 5.43051338271072 580 75 25 18
-102.675771257486 7.03636768096208 582 74 24 17
-102.852190108444 8.6383130745556 583 74 24 17
-102.852190108444 10.2281684893159 583 76 26 17
-103.028608959401 11.8382949570848 584 77 25 16
-103.381446661317 13.4768735520379 586 79 27 18
-103.734284363233 15.1263602458916 588 79 27 18
-104.087122065149 16.7867550386459 590 83 29 20
-104.087122065149 18.3956996264822 590 80 26 17
-104.263540916107 20.0385503909529 591 80 26 17
-104.087122065149 21.6135888021547 590 84 27 18
-104.263540916107 23.2618936160757 591 87 28 17
-104.439959767064 24.915652479447 592 94 31 20
-104.616378618022 26.5748653922686 593 99 33 23
-104.263540916107 28.09690845376 591 104 36 28
-104.263540916107 29.7085800663214 591 105 37 29
-104.439959767064 31.3732470285933 592 106 36 36
-104.439959767064 32.9876456658799 592 92 21 24
-104.087122065149 34.4851455048449 590 234 210 210
-103.734284363233 35.9717372449094 588 224 200 200
-103.205027810359 37.3835174374623 585 225 204 200
-103.028608959401 38.9121964283366 584 225 205 199
-102.675771257486 40.3660638716993 582 221 199 191
-102.499352406528 41.881107738948 581 227 204 192
-102.499352406528 43.4655091042579 581 222 199 185
-102.146514704612 44.8948333250943 579 223 200 186
-101.970095853654 46.3935150439921 578 221 198 184
-101.793677002696 47.8867427134395 577 219 194 180
-101.617258151738 49.3745163334367 576 213 188 174
-101.44083930078 50.8568359039836 575 211 188 174
-100.911582747907 52.1513540333551 572 207 186 174
-100.558745045991 53.5234107349635 570 204 183 171
-100.382326195033 54.981187082984 569 200 179 167
-100.382326195033 56.5328641515922 569 195 176 164
-100.735163896949 58.2887048097266 571 195 176 164
-100.735163896949 59.8458359277851 571 192 173 161
-100.558745045991 61.2954312016302 570 188 171 159
-100.382326195033 62.739572426025 569 183 165 150
-100.205907344075 64.1782596009696 568 176 158 143
-100.382326195033 65.8429265632415 569 174 156 141
-100.029488493117 67.1577157456217 567 172 154 139
-100.029488493117 68.7039387647796 567 167 150 138
-100.029488493117 70.2501617839376 567 158 141 129
-100.382326195033 72.0496348376743 569 151 133 118
-100.735163896949 73.8600159903116 571 150 132 117
-100.911582747907 75.5492261751098 572 145 127 112
-101.44083930078 77.513502592288 575 142 124 109
-102.32293355557 79.7692073901971 580 134 116 101
-103.734284363233 82.472962858103 588 140 122 107
-105.67489172377 85.6493122185321 599 0 0 0
-107.615499084306 88.8856561229145 610 0 0 0
-109.026849891969 91.7366709259784 618 0 0 0
-109.379687593885 93.7243086857502 620 108 85 73
-109.379687593885 95.4150640153408 620 54 29 17
-110.791038401548 98.3587976590597 628 64 30 22
-112.202389209211 101.346163698381 636 56 24 17
-113.437321165916 104.215085794588 643 104 92 85
-113.96657771879 106.462972783181 646 120 121 117
-115.201509675495 109.397343472792 653 66 71 67
-115.730766228369 111.688862856988 656 0 0 0
-116.083603930284 113.823759951918 658 60 65 61
-115.907185079327 115.442430758722 657 56 59 55
-118.200630141779 119.553786335016 670 46 52 45
-119.435562098484 122.649051483411 677 55 60 56
-119.964818651358 125.046924831887 680 58 63 59
-119.435562098484 126.341442961259 677 98 101 97
-119.435562098484 128.187638700183 677 0 0 0
-119.964818651358 130.610055271185 680 39 22 17
-122.25826371381 134.99684034472 693 0 0 0
-127.197991540631 142.417442963256 721 60 28 21
-109.94692600532 -64.847722741279 633 148 138 141
-107.167856785596 -61.5260275318978 617 171 122 130
-105.778322175734 -59.0675251951019 609 189 123 135
-104.909863044571 -56.9354472102507 604 189 125 137
-103.520328434709 -54.5560285904841 596 189 123 135
-103.172944782243 -52.7531019823026 594 189 120 133
-102.30448565108 -50.7028347392058 589 195 124 138
-102.30448565108 -49.0966171760947 589 194 122 139
-101.436026519916 -47.087255303875 584 189 118 132
-99.3517246051232 -44.5598508192309 572 186 115 128
-97.9621899952613 -42.398594177476 564 184 112 122
-97.9621899952613 -40.8605522324935 564 144 78 80
-98.1358818214941 -39.3922310504321 565 92 34 33
-98.4832654739595 -37.9854495571165 567 79 32 29
-98.4832654739595 -36.4392265379586 567 74 31 27
-98.6569573001923 -34.9545432075463 568 76 33 29
-98.830649126425 -33.4644058276838 569 77 34 28
-99.0043409526577 -31.968814398371 570 76 33 27
-99.1780327788905 -30.4677689196079 571 77 34 28
-99.3517246051232 -28.9612693913945 572 77 34 28
-99.3517246051232 -27.4014112486108 572 76 33 27
-99.1780327788905 -25.7963755654324 571 80 35 29
-99.1780327788905 -24.2392444473739 571 82 37 31
-99.3517246051232 -22.7218368202599 572 82 36 30
-99.3517246051232 -21.1619786774762 572 80 35 31
-99.3517246051232 -19.6021205346926 572 81 36 32
-99.6991082575887 -18.1053472254471 574 80 34 32
-100.914951041218 -16.7417427775206 581 76 34 32
-100.567567388752 -15.1051646775731 579 53 24 20
-100.220183736287 -13.4794946765262 577 95 53 51
-99.3517246051232 -11.8028298207744 572 138 68 67
-99.8728000838214 -10.2966935574207 575 82 25 20
-100.39387556252 -8.77419514571623 578 82 27 22
-100.567567388752 -7.21042809827475 579 75 24 19
-100.39387556252 -5.62175456344718 578 76 25 20
-100.220183736287 -4.0385350780699 577 72 24 18
-100.39387556252 -2.46931398117814 578 75 27 21
-100.914951041218 -0.897729124421002 581 76 26 19
-101.088642867451 0.687854120821643 582 78 26 19
-101.088642867451 2.27498251085675 582 78 26 19
-101.088642867451 3.86211090089186 582 78 26 19
-101.436026519916 5.46796519914321 584 75 23 16
-101.783410172381 7.08472759629515 586 75 24 19
-101.609718346149 8.66794708167243 585 74 24 17
-101.609718346149 10.263256545883 585 77 25 18
-101.957101998614 11.8991081161109 587 79 27 18
-102.130793824847 13.5228697075056 588 78 26 17
-102.130793824847 15.1263602458916 588 78 26 17
-102.478177477312 16.7867550386459 590 76 23 11
-102.478177477312 18.3956996264822 590 79 25 16
-102.651869303545 20.0385503909529 591 79 25 16
-102.478177477312 21.6135888021547 590 83 27 16
-102.999252956011 23.3406140682452 593 88 29 18
-103.172944782243 24.9998269810668 594 91 28 17
-103.172944782243 26.6196796678036 594 98 32 22
-102.999252956011 28.1919910542803 593 102 36 28
-102.999252956011 29.8091167162921 593 104 37 32
-102.999252956011 31.4262423783038 593 104 36 36
-103.172944782243 33.0990904147511 594 96 28 30
-102.825561129778 34.6020443031665 592 237 211 211
-102.478177477312 36.0940900926812 590 225 202 200
-101.783410172381 37.4474208860733 586 228 207 203
-101.609718346149 38.9788269016728 585 224 204 198
-101.088642867451 40.3660638716993 582 225 203 195
-101.088642867451 41.9531922617345 582 224 201 189
-100.741259214985 43.3906975567463 580 223 200 186
-100.567567388752 44.8948333250943 579 223 198 184
-100.39387556252 46.3935150439921 578 215 190 176
-100.39387556252 47.9697353351266 578 214 190 174
-100.046491910054 49.3745163334367 576 209 185 169
-99.8728000838214 50.8568359039836 575 209 186 172
-99.5254164313559 52.2425277292176 573 205 182 168
-99.3517246051232 53.7112121761388 572 199 176 162
-99.0043409526577 55.0778148282968 570 193 170 156
-99.3517246051232 56.8309284617061 572 190 169 155
-99.5254164313559 58.4928683992528 573 188 167 155
-99.6991082575887 60.1602623862498 574 185 166 154
-99.5254164313559 61.6180387342704 573 182 164 149
-99.5254164313559 63.1806239017792 573 180 162 147
-99.3517246051232 64.6302191756243 572 172 154 139
-99.1780327788905 66.0743604000191 571 165 147 132
-98.830649126425 67.3946036318497 569 161 143 128
-98.830649126425 68.9462807004579 569 157 140 128
-99.0043409526577 70.6218557616303 570 156 139 127
-99.1780327788905 72.3028848722531 571 146 129 117
-99.5254164313559 74.1187200743407 573 143 127 112
-100.046491910054 76.0775424420686 576 143 124 112
-100.741259214985 78.1875330496122 580 139 121 106
-102.130793824847 80.869472319717 588 136 117 105
-104.562479392105 84.436604830915 602 0 0 0
-106.994164959363 88.080094034417 616 0 0 0
-109.078466874156 91.5085115494923 628 134 113 101
-109.078466874156 93.2210830768842 628 129 106 94
-109.773234179087 95.5383275635389 632 73 50 38
-109.773234179087 97.2618071898313 632 57 32 20
-110.989076962716 100.081642840986 639 62 30 23
-111.85753609388 102.62095821031 644 58 27 22
-112.378611572578 104.863391149453 647 120 109 104
-113.247070703742 107.45179296383 652 124 125 121
-115.678756271 111.575238518958 666 64 69 65
-117.58936635956 115.264268527715 677 118 123 119
-118.631517316957 118.14837089234 683 0 0 0
-118.978900969422 120.362351704299 685 0 0 0
-121.931662015378 125.263817921166 702 0 0 0
-123.32119662524 128.627513372558 710 0 0 0
-123.147504799008 130.379808390894 709 0 0 0
-123.32119662524 132.499888482265 710 0 0 0
-124.015963930171 135.19346238099 714 101 100 94
-124.189655756404 137.332631645438 715 0 0 0
-126.273957671197 141.620061948934 727 0 0 0
-108.220719354302 -64.847722741279 633 157 149 152
-105.485282530181 -61.5260275318978 617 164 120 128
-104.11756411812 -59.0675251951019 609 188 122 134
-103.262740110582 -56.9354472102507 604 190 126 138
-101.895021698522 -54.5560285904841 596 191 124 138
-101.382127293999 -52.6642920463055 593 189 120 134
-100.698268087969 -50.7028347392058 589 195 123 140
-101.040197690984 -49.2633289491884 591 195 123 140
-100.356338484953 -47.3291418893401 587 190 119 133
-98.4757256683699 -44.8714581676171 576 188 117 130
-96.4241480502789 -42.398594177476 564 184 112 122
-96.2531832487713 -40.7881044448472 563 155 89 91
-96.2531832487713 -39.2527895245899 563 95 36 35
-96.766077653294 -37.9184558189205 566 79 32 29
-96.9370424548016 -36.4392265379586 567 75 32 28
-97.1080072563092 -34.9545432075463 568 74 31 27
-97.4499368593244 -33.5232184917043 570 74 31 25
-97.620901660832 -32.0249000376664 571 75 32 26
-97.7918664623395 -30.5211275341781 572 77 34 28
-97.7918664623395 -28.9612693913945 572 77 34 28
-97.7918664623395 -27.4014112486108 572 79 34 28
-97.620901660832 -25.7963755654324 571 79 34 28
-97.620901660832 -24.2392444473739 571 80 35 29
-97.9628312638471 -22.7615603112044 573 80 34 28
-97.9628312638471 -21.1989751436956 573 80 35 31
-98.1337960653547 -19.670659417681 574 79 34 30
-98.1337960653547 -18.1053472254471 574 79 36 32
-98.6466904698775 -16.6264812093449 577 76 37 34
-98.3047608668623 -15.000811208298 575 56 27 22
-98.1337960653547 -13.4094106487453 574 70 21 18
-97.9628312638471 -11.8234641386428 573 150 75 74
-98.4757256683699 -10.3146008505641 576 90 25 21
-98.9886200728927 -8.78937541413442 579 87 27 22
-99.3305496759078 -7.23533458566085 581 79 25 18
-99.3305496759078 -5.65093322035089 581 79 26 21
-99.1595848744002 -4.05953266079817 580 76 25 20
-99.1595848744002 -2.47785832021336 580 77 26 21
-99.672479278923 -0.900819414005928 583 79 27 20
-99.8434440804306 0.690217880687009 584 76 24 17
-99.8434440804306 2.28280032017241 584 77 23 16
-99.8434440804306 3.87538275965781 584 78 26 19
-100.014408881938 5.47732815325133 585 77 25 18
-100.356338484953 7.09681757512842 587 73 22 17
-100.527303286461 8.71239809234767 588 75 22 17
-100.527303286461 10.3158886307337 588 76 24 17
-101.040197690984 11.9801923281458 591 73 23 14
-101.211162492491 13.614862018441 592 75 23 14
-101.211162492491 15.2292606557276 592 73 23 14
-101.040197690984 16.81520716583 591 75 23 14
-101.040197690984 18.4268787783915 591 78 26 17
-101.211162492491 20.0724565675873 592 78 26 17
-101.040197690984 21.6502220035143 591 79 25 16
-101.382127293999 23.3406140682452 593 82 26 15
-101.553092095506 24.9998269810668 594 90 31 20
-101.895021698522 26.7093082188737 596 95 34 23
-101.724056897014 28.2870736548007 595 102 36 28
-101.895021698522 29.959921691248 596 103 36 31
-101.382127293999 31.4262423783038 593 96 32 32
-101.553092095506 33.0990904147511 594 94 33 32
-101.382127293999 34.6604937023272 593 231 206 204
-101.211162492491 36.216442940453 592 223 200 198
-100.527303286461 37.5752277832954 588 226 205 201
-100.185373683446 39.045457375009 586 226 206 200
-99.672479278923 40.4354213697607 583 222 200 192
-99.672479278923 42.0252767845209 583 223 200 188
-99.1595848744002 43.3906975567463 580 222 197 183
-99.1595848744002 44.9723718973311 580 221 194 180
-98.8176552713851 46.3935150439921 578 213 186 171
-98.9886200728927 48.0527279568137 579 210 183 168
-98.6466904698775 49.4602359798489 577 208 181 166
-98.6466904698775 51.0337292462583 577 207 180 165
-98.4757256683699 52.5160488168052 576 199 175 159
-98.3047608668623 53.9929143379017 575 196 171 157
-97.9628312638471 55.3676980642352 573 188 165 151
-98.1337960653547 57.029638001782 574 187 164 150
-97.9628312638471 58.4928683992528 573 186 165 151
-98.1337960653547 60.1602623862498 574 181 160 146
-97.7918664623395 61.510502890057 572 179 158 144
-98.3047608668623 63.4011496396562 575 177 157 141
-97.9628312638471 64.743209069288 573 167 149 133
-97.9628312638471 66.3057942367968 573 160 144 129
-97.620901660832 67.6314915180776 571 152 136 121
-97.9628312638471 69.4309645718143 573 154 139 126
-98.1337960653547 71.1174477318874 574 148 133 120
-98.4757256683699 72.9360099587002 576 145 128 116
-98.9886200728927 74.8948323264281 579 138 121 109
-100.014408881938 77.2662540427259 585 142 123 111
-101.040197690984 79.6704000557256 591 139 120 108
-103.262740110582 83.0700021787569 604 0 0 0
-106.169141736211 87.1015475083027 621 0 0 0
-107.70782494978 90.0819143533811 630 133 112 98
-108.562648957318 92.5285108820504 635 138 115 103
-109.07554336184 94.70549522779 638 99 76 64
-110.101332170886 97.3523464413276 644 55 30 18
-109.588437766363 98.6468645706992 641 60 32 21
-109.759402567871 100.551509708784 642 61 30 23
-109.588437766363 102.142910268337 641 75 57 52
-109.588437766363 103.890933117155 641 128 129 123
-110.614226575409 106.627776146623 647 105 110 106
-113.691593002545 111.407708130791 665 75 80 76
-118.99150184928 118.499159372658 696 0 0 0
-122.410797879432 123.856857333698 716 0 0 0
-126.172023512599 129.675059208427 738 89 90 86
-130.617108351796 136.327004119332 764 75 78 74
-129.762284344258 137.504623450382 759 0 0 0
-129.591319542751 139.390542680251 758 90 93 89
-130.275178748781 142.204105666882 762 96 99 95
-104.475659381895 -61.9248996714887 621 171 139 146
-103.129757167636 -59.4554892357923 613 187 120 134
-102.456806060506 -57.4067671374879 609 191 126 140
-100.942666069464 -54.9221764333732 600 191 124 138
-100.101477185552 -52.8419119182998 595 188 119 133
-99.4285260784223 -50.8750005617498 591 190 118 135
-99.4285260784223 -49.2633289491884 591 193 121 138
-98.4190994177276 -47.1678841656967 585 191 120 134
-97.2414349802505 -45.0272618418103 578 190 119 132
-94.8861061052964 -42.398594177476 564 184 113 126
-94.7178683285139 -40.7881044448472 563 160 93 97
-94.8861061052964 -39.322510287511 564 89 30 29
-95.5590572124261 -38.0524432953124 568 77 30 27
-95.7272949892086 -36.5677599649002 569 75 32 28
-95.895532765991 -35.0776225850377 570 75 32 28
-96.2320083195559 -33.6408438197454 572 75 32 26
-96.2320083195559 -32.0809856769618 572 74 31 25
-96.4002460963383 -30.5744861487483 573 78 35 29
-96.4002460963383 -29.0119009812396 573 77 34 28
-96.4002460963383 -27.4493158137308 573 78 33 27
-96.4002460963383 -25.886730646222 573 81 36 30
-96.4002460963383 -24.3241454787132 573 81 36 30
-96.4002460963383 -22.7615603112044 573 80 34 28
-96.4002460963383 -21.1989751436956 573 81 36 32
-96.7367216499032 -19.7049288591752 575 81 36 32
-96.9049594266857 -18.1684320589852 576 78 35 31
-97.409672757033 -16.6841119934328 579 75 36 32
-97.2414349802505 -15.0790763102543 578 56 25 20
-96.9049594266857 -13.4561333339325 576 67 18 15
-96.5684838731208 -11.8440984565113 574 148 75 74
-96.9049594266857 -10.3146008505641 576 91 24 20
-97.5779105338154 -8.80455568255262 580 85 25 20
-98.0826238641627 -7.26024107304695 583 79 25 18
-97.9143860873803 -5.66065943931879 582 75 23 16
-97.9143860873803 -4.07353104928368 582 73 25 19
-98.0826238641627 -2.49067482876618 583 72 24 18
-98.4190994177276 -0.903909703590854 585 73 22 17
-98.4190994177276 0.691399760619692 585 76 24 17
-98.5873371945101 2.29061812948807 586 75 23 16
-98.5873371945101 3.88865461842376 586 74 24 17
-98.923812748075 5.5054170155757 588 71 21 14
-99.0920505248574 7.12099753279495 589 69 18 13
-99.0920505248574 8.72721509590608 589 74 23 18
-99.2602883016398 10.3509766873008 590 71 21 14
-99.4285260784223 11.9801923281458 591 73 23 16
-99.7650016319871 13.6378600961749 593 72 22 13
-99.9332394087696 15.2807108606456 594 73 23 14
-99.9332394087696 16.9005635473825 594 75 25 16
-99.9332394087696 18.5204162341193 594 73 23 14
-99.7650016319871 20.1063627442218 593 74 24 15
-99.7650016319871 21.7234884062335 593 81 27 18
-100.101477185552 23.4193345204147 595 81 28 16
-100.269714962334 25.0840014826865 596 87 30 19
-100.437952739117 26.7541224944087 597 91 32 21
-100.437952739117 28.382156255321 597 99 35 27
-100.774428292682 30.110726666204 599 101 37 31
-99.9332394087696 31.4792377280142 594 92 28 28
-100.101477185552 33.1548127891867 595 161 114 112
-99.7650016319871 34.6604937023272 593 232 209 207
-99.5967638552047 36.216442940453 592 226 203 199
-98.923812748075 37.5752277832954 588 227 206 202
-98.5873371945101 39.045457375009 586 224 204 198
-98.2508616409452 40.504778867822 584 222 200 192
-98.2508616409452 42.0973613073074 584 227 201 192
-97.7461483105979 43.4655091042579 581 223 195 184
-97.5779105338154 44.9723718973311 580 217 190 176
-97.2414349802505 46.3935150439921 578 208 181 166
-97.409672757033 48.0527279568137 579 203 176 161
-97.0731972034681 49.4602359798489 577 202 176 158
-97.0731972034681 51.0337292462583 577 201 174 159
-96.9049594266857 52.5160488168052 576 193 169 153
-96.7367216499032 53.9929143379017 575 186 162 146
-96.9049594266857 55.6575813001736 576 183 159 143
-96.9049594266857 57.2283475418579 576 182 160 144
-96.7367216499032 58.697031988779 575 182 160 144
-96.7367216499032 60.2650712057381 575 178 155 141
-96.5684838731208 61.7255745784838 574 178 156 140
-96.7367216499032 63.4011496396562 575 174 154 138
-96.7367216499032 64.9691888566153 575 163 145 129
-96.5684838731208 66.4215111551856 574 155 139 124
-96.5684838731208 67.9868233474195 574 150 134 119
-96.9049594266857 69.7944774753317 576 144 129 116
-97.409672757033 71.7369376947087 579 141 126 113
-98.0826238641627 73.822385079726 583 143 126 116
-99.0920505248574 76.1883527465736 589 142 125 113
-100.774428292682 79.1153609770818 599 141 122 112
-103.129757167636 82.6361340679523 613 0 0 0
-105.989799372937 86.6458631996968 630 135 117 102
-108.345128247892 90.3275307493509 644 0 0 0
-108.681603801456 92.3697090036257 646 135 114 100
-110.195743792498 95.442794689359 655 0 0 0
-111.205170453193 98.1196431748733 661 0 0 0
-112.719310444235 101.282720676536 670 0 0 0
-110.868694899628 101.416979332435 659 0 0 0
-108.681603801456 101.177998865848 646 52 30 24
-107.335701587197 101.664862326363 638 98 87 82
-106.662750480067 102.756398746141 634 73 80 76
-108.176890471109 105.968562692857 643 39 44 40
-110.868694899628 110.402525801792 659 93 100 96
-118.271157078056 119.6909612629 703 121 126 122
-140.64678139012 149.17457518817 836 0 0 0
-103.609730787866 -62.4234898459774 626 164 141 147
-102.285644771408 -59.9404442866552 618 184 119 133
-101.458091011121 -57.7838230792776 613 189 124 138
-99.4719619864338 -55.0137133940955 601 193 127 139
-98.3133867220327 -52.7531019823026 594 188 119 133
-97.8168544658608 -50.8750005617498 591 195 123 140
-97.6513437138036 -49.1799730626415 590 194 122 139
-96.9893007055744 -47.2485130275184 586 191 122 138
-95.8307254411733 -45.1051636789068 579 188 117 130
-93.6790856644285 -42.5489438022188 566 185 114 127
-93.1825534082566 -40.7881044448472 563 169 102 106
-93.3480641603139 -39.322510287511 564 100 41 40
-94.1756179206004 -38.1194370335084 569 80 31 28
-94.506639424715 -36.6962933918419 571 77 32 28
-94.3411286726577 -35.0776225850377 570 74 31 27
-94.506639424715 -33.5820311557249 571 77 34 30
-94.3411286726577 -31.968814398371 570 78 35 29
-94.6721501767722 -30.5211275341781 572 76 33 27
-94.6721501767722 -28.9612693913945 572 79 34 28
-95.0031716808868 -27.4972203788507 574 79 34 30
-94.8376609288295 -25.886730646222 573 78 33 29
-95.0031716808868 -24.3665959943828 574 82 37 31
-94.8376609288295 -22.7615603112044 573 81 35 29
-95.0031716808868 -21.235971609915 574 79 34 28
-95.3341931850014 -19.7391983006695 576 80 35 29
-95.4997039370587 -18.1999744757543 577 77 34 28
-95.8307254411733 -16.6841119934328 579 77 38 34
-95.665214689116 -15.0790763102543 578 75 34 28
-95.9962361932306 -13.5495787043071 580 61 14 11
-95.8307254411733 -11.9472700458538 579 142 73 69
-96.1617469452879 -10.4041373162808 581 88 21 17
-96.4927684494025 -8.8500964878072 583 86 24 18
-96.6582792014598 -7.27269431673999 584 77 23 16
-96.6582792014598 -5.68011187725459 584 75 23 16
-96.4927684494025 -4.08053024352644 583 72 24 17
-96.6582792014598 -2.49494699828379 584 71 23 16
-96.9893007055744 -0.905454848383317 586 72 22 15
-97.320322209689 0.694945400417742 588 71 21 14
-97.4858329617463 2.30234484346156 589 72 22 15
-97.6513437138036 3.91519833595566 590 70 22 15
-97.8168544658608 5.53350587790006 591 70 22 15
-97.8168544658608 7.14517749046149 591 70 22 15
-97.6513437138036 8.7420320994645 590 70 22 15
-97.9823652179181 10.3860647438679 592 70 24 17
-97.9823652179181 12.0004633811545 592 68 22 15
-98.47889747409 13.6838562516426 595 71 24 14
-98.8099189782046 15.3578861680226 597 72 25 15
-98.9754297302619 17.0143720561191 598 73 26 16
-98.9754297302619 18.6451328417565 598 74 27 17
-98.6444082261473 20.2080812741251 596 73 26 16
-98.8099189782046 21.8700212116718 597 76 26 17
-98.6444082261473 23.4586947464994 596 80 29 17
-98.8099189782046 25.1260887334964 597 85 29 18
-98.6444082261473 26.7093082188737 596 87 31 20
-98.9754297302619 28.4296975555812 598 95 35 27
-99.1409404823192 30.110726666204 599 95 35 29
-98.8099189782046 31.6382237771456 597 74 15 14
-98.8099189782046 33.2662575380579 597 228 189 186
-98.3133867220327 34.718943101488 594 224 201 199
-97.9823652179181 36.216442940453 592 225 202 198
-97.320322209689 37.5752277832954 588 225 204 200
-96.9893007055744 39.045457375009 586 227 205 197
-96.6582792014598 40.504778867822 584 224 200 192
-96.4927684494025 42.0252767845209 583 226 201 189
-96.3272576973452 43.5403206517696 582 221 193 182
-96.1617469452879 45.0499104695679 581 207 180 165
-95.8307254411733 46.473780640954 579 204 177 162
-95.8307254411733 48.0527279568137 579 193 166 151
-95.665214689116 49.5459556262611 578 195 169 151
-95.4997039370587 51.0337292462583 577 193 167 149
-95.4997039370587 52.6072225126677 577 189 162 147
-95.3341931850014 54.0868150584894 576 183 157 139
-95.665214689116 55.8508367907992 578 180 156 140
-95.4997039370587 57.3277023118958 577 176 152 136
-95.4997039370587 58.9011955783052 577 169 147 131
-95.4997039370587 60.4746888447145 577 169 147 131
-95.3341931850014 61.9406462669105 576 167 145 129
-95.665214689116 63.7319382464718 578 161 141 125
-95.4997039370587 65.1951686439427 577 160 142 126
-95.665214689116 66.8843788287409 578 151 136 121
-95.8307254411733 68.5790430629894 579 145 130 117
-96.6582792014598 70.7638452180446 584 138 122 112
-97.6513437138036 73.0998156129156 590 140 124 114
-99.1409404823192 75.8483853563566 599 0 0 0
-101.127069507007 79.0340976708939 611 0 0 0
-103.940752291981 82.9456539125331 628 0 0 0
-107.085456581069 87.2195411777571 647 142 124 109
-109.568117861929 91.0469229177766 662 0 0 0
-111.719757638674 94.6755951177203 675 0 0 0
-113.374865159246 97.9462084635969 685 0 0 0
-115.029972679819 101.271362303976 695 0 0 0
-112.878332903075 104.956570416875 682 0 0 0
-108.078521093413 102.27435489071 653 45 28 23
-105.926881316668 101.983560954345 640 62 56 50
-105.761370564611 103.566780439723 639 45 51 44
-108.409542597528 107.946203054155 655 32 37 33
-113.043843655132 114.42325511779 683 0 0 0
-102.553748219253 -62.8223619855683 630 163 146 151
-101.088694673264 -60.2314173171729 621 183 118 132
-100.274776036603 -58.0666150356199 616 189 122 136
-98.4841550359495 -55.3798612369847 605 197 128 142
-97.5074526719566 -53.1971516622883 599 190 121 135
-96.856317762628 -51.2193322068378 595 192 121 135
-96.3679665806316 -49.3466848357352 592 190 121 137
-95.2284804893065 -47.1678841656967 585 190 121 137
-94.2517781253136 -45.1051636789068 579 190 119 132
-92.46115712466 -42.6992934269616 568 187 116 129
-91.9728059426636 -40.9330000201398 565 167 102 106
-92.1355896699957 -39.4619518133533 566 97 39 38
-92.46115712466 -38.0524432953124 568 81 32 29
-92.9495083066565 -36.6962933918419 571 76 31 27
-92.7867245793243 -35.0776225850377 570 75 32 28
-93.1122920339886 -33.6408438197454 572 78 35 29
-92.7867245793243 -31.968814398371 570 77 34 28
-93.1122920339886 -30.5211275341781 572 77 34 28
-93.1122920339886 -28.9612693913945 572 78 35 29
-93.4378594886529 -27.4972203788507 574 79 34 28
-93.2750757613207 -25.886730646222 573 79 34 28
-93.4378594886529 -24.3665959943828 574 79 34 28
-93.4378594886529 -22.8012838021489 574 80 35 29
-93.6006432159851 -21.2729680761343 575 79 34 28
-93.7634269433172 -19.7391983006695 576 80 35 29
-93.9262106706494 -18.1999744757543 577 80 37 31
-94.2517781253136 -16.6841119934328 579 76 37 33
-94.2517781253136 -15.1051646775731 579 77 36 30
-94.4145618526458 -13.5495787043071 580 63 10 5
-94.2517781253136 -11.9472700458538 579 135 64 60
-94.7401293073101 -10.4220446094241 582 88 24 18
-95.0656967619744 -8.86527675622539 584 79 21 15
-95.0656967619744 -7.27269431673999 584 76 24 17
-95.2284804893065 -5.68983809622249 585 72 22 15
-95.2284804893065 -4.09452863201195 585 72 26 20
-95.716831671303 -2.51203567635423 588 70 24 18
-95.716831671303 -0.908545137968243 588 71 23 16
-96.0423991259673 0.697309160283109 590 70 22 15
-96.2051828532994 2.31016265277722 591 72 24 17
-96.5307503079637 3.93510612410459 593 68 22 15
-96.6935340352959 5.56159474022443 594 69 23 16
-96.856317762628 7.19353740579456 595 69 23 16
-96.6935340352959 8.80130011369816 594 69 23 16
-96.856317762628 10.4386968287186 595 68 24 16
-96.6935340352959 12.0410054871719 594 69 25 17
-97.1818852172923 13.7298524071103 597 68 24 14
-97.5074526719566 15.4093363729406 599 69 25 15
-97.6702363992888 17.0712763104873 600 71 27 17
-97.3446689446245 18.6451328417565 598 72 27 17
-97.1818852172923 20.2419874507595 597 72 27 17
-97.3446689446245 21.9066544130314 598 77 27 18
-97.6702363992888 23.6161356508383 600 81 30 18
-97.6702363992888 25.252350485926 600 83 30 18
-97.5074526719566 26.8437510454788 599 89 33 22
-97.8330201266209 28.5723214563617 601 92 34 28
-97.995803853953 30.2615316411599 602 89 32 27
-97.5074526719566 31.7442144765665 599 65 18 16
-97.0191014899602 33.2105351636223 596 217 185 182
-96.6935340352959 34.718943101488 594 226 201 197
-96.2051828532994 36.1552665165671 591 227 205 199
-95.716831671303 37.5752277832954 588 227 205 199
-95.3912642166387 39.045457375009 586 227 203 195
-95.0656967619744 40.504778867822 584 224 200 192
-94.9029130346422 42.0252767845209 583 225 197 186
-94.7401293073101 43.5403206517696 582 218 191 177
-94.7401293073101 45.1274490418047 582 209 182 167
