ply
format ascii 1.0
element vertex 760
property float x
property float y
property float z
property uchar red
property uchar green
property uchar blue
element face 0
property list uchar int vertex_indices
end_header
2.11214400133889 37.1406143323497 600.536652264124 157 152 131
3.70188251486161 38.2382915477012 600.641364468334 161 156 136
2.89230463077945 36.0426099297439 601.549556637824 171 166 146
4.5501077553875 38.5803056721715 603.023585292401 174 167 147
4.64791068671224 39.0945962354723 606.04943457418 175 168 148
6.18496334220316 37.8230915793672 606.426012661326 165 156 135
5.50915422976021 39.437992588653 608.44581331654 170 163 142
8.70803380385098 40.7103431306609 610.299997797716 162 151 130
8.87840495669633 43.6131232697012 613.073209165894 167 160 139
7.43482207208183 46.3598264808423 614.089052969672 174 170 153
6.08723927970175 37.3126308741146 603.399716955523 179 169 150
8.54839276831711 37.823988206782 607.536327068079 163 152 131
8.62687202142013 39.2651125168262 608.91696985308 162 151 130
-5.80895798304482 38.2362829478127 596.136919152788 208 211 207
-1.10598038215022 36.7989273951335 597.036814862146 167 164 150
6.86613751330174 36.216403177662 604.410982325383 167 156 135
5.24035530383992 36.9726699015395 601.018688711274 175 168 148
-5.09669762353974 36.625252178916 594.156760668794 169 172 168
-2.71504257389478 36.6280839265253 595.286896161157 190 186 176
1.20642652939233 35.3673471798682 596.795548476277 158 152 135
2.0467619195814 35.704702109064 599.169720973392 158 153 133
1.26786368598147 36.8009298055166 598.158455603533 159 154 134
-2.77261367413888 35.193001040466 593.928459621401 175 170 163
8.96761432711077 45.0706727949068 614.463392589436 167 162 142
6.03683607720376 48.1939499768054 616.777079834745 174 170 153
4.59648780368093 50.9715684980746 617.792183829996 174 170 153
1.98406236715186 34.2728961895687 597.805174842296 162 156 139
3.58791723788755 34.4431867666926 599.549430375968 172 167 147
5.19177210862318 34.6134773438165 601.293685909639 171 166 146
6.77630330113709 35.7106016676839 601.392734946533 172 165 145
6.79562697935881 34.7837679209405 603.037941443311 163 153 134
8.47259604454183 36.386970200528 606.158069442713 164 153 130
9.53961789548288 41.9832973056651 611.03939728464 160 151 130
0.0686205832049609 56.3977736824526 618.02464227635 171 168 154
-0.730475983843348 57.5224286773545 616.987152845036 190 189 183
0.0186966179904289 53.9734735379093 618.307228683112 159 155 139
2.35988323008445 54.8856080341325 617.771290705521 156 150 133
3.90127564952672 53.5725278309808 618.15844262424 168 163 143
11.2416766451634 43.6063601810196 614.184416420693 159 150 129
11.1538874082363 42.1546936657573 612.794979152946 161 152 129
7.57207425509029 46.8974130205156 617.155143886214 173 168 148
6.13417190442505 49.6676482714304 618.173972313169 176 172 155
9.10478764129573 45.6044294765319 617.52992993 158 151 130
6.23419026097429 51.1454528698455 619.573249951229 176 172 155
6.18370152552262 52.0727991257323 617.893618026525 179 173 156
6.92695649227079 48.5518768072938 619.203266725279 173 167 150
3.95096300827112 55.9853384013793 617.877195489549 157 151 134
0.171636944375621 57.8950040168512 619.424519377952 171 168 154
-5.27892368807744 59.6425108980979 619.152180861467 188 191 188
-2.12325515237865 59.4201594997269 619.672061089212 155 154 148
5.48975176720904 54.6719817524855 618.26151582461 167 162 142
7.02601573446589 53.3621785158978 618.642558151989 176 170 153
4.79595974654222 57.2788240953351 618.628520774649 162 157 137
9.20196573087031 47.0704680550604 618.927715256471 159 152 132
7.02823724466049 50.0279046995559 620.60418336718 176 170 153
6.33689114685137 52.6273637720512 620.974912748924 176 172 155
5.59126912606894 56.1594992188924 619.661093194441 163 158 138
9.30182634977274 48.5406129373791 620.327885742577 163 153 134
7.86832994340915 54.6515579060632 619.391498277454 176 170 153
7.87189271826765 51.3193372416166 621.354316072462 175 169 152
7.92150120818866 53.7283179539668 621.073515361794 175 171 154
1.7666616477307 58.9970639817352 619.534448325456 171 168 154
-1.27021082612396 60.7259641050538 620.430541853218 140 141 135
10.9863565223657 39.2636795466038 610.023260096356 166 153 130
12.5617354687022 40.3579213813498 610.112621802456 164 151 128
12.7681569209897 42.3260900258495 614.550561021251 167 154 130
12.6804465528861 40.8782533686356 613.160677329481 165 152 128
11.3761674300206 44.1360105588542 617.248568601622 163 152 129
-0.453579308100132 33.7678567266284 593.693602558644 170 165 154
0.371298460212131 35.0305451421566 594.42703914648 167 164 150
1.91513630784607 33.7731361035756 594.809133708691 156 150 133
-3.60513808281462 34.8564754484965 591.562781875262 205 208 205
5.12654776451251 33.1852248366274 599.925861770861 172 168 151
6.72779897474373 33.3552389680092 601.667285720874 164 157 137
4.28889490365128 32.851976211222 597.554074433382 174 170 153
5.82634190325928 31.5996208453581 597.928420400411 173 171 153
9.08483755283169 33.3611892681412 602.769851532446 162 151 130
7.42238579248163 31.7690820852557 599.664181183107 172 166 149
9.15392795328722 34.7879415149194 604.142146258723 166 153 130
10.8295557538063 36.3890906426117 607.261081678308 165 152 129
10.7551791635184 34.9579556463011 605.883570208737 167 154 130
10.6834851025584 33.5309269537809 604.5084438988 166 153 129
11.6557747867826 37.6538322100352 607.995710845961 165 152 129
14.1195319359023 38.1654659884446 612.135152542175 163 152 131
14.0372654952777 36.7296717968595 610.749592745651 162 151 130
13.2596296575182 37.8241227871591 609.739966379633 163 150 126
13.3406337023023 39.2616936848972 611.123887172316 164 151 127
13.4618695781671 39.7784722598768 614.175220707022 164 151 128
13.5508423421113 41.2245322109377 615.566743402634 163 152 129
11.4719253861079 45.5961661274392 618.645607772299 162 151 130
12.9025688370235 42.851910545636 617.615159626204 166 155 132
10.6144735709262 32.1080045650511 603.135702748499 165 152 129
9.01842968170394 31.9385433251533 601.399941965803 159 150 129
13.0327126991331 33.5360479166867 605.602514959396 167 156 133
14.7043167056603 35.1310375886935 608.717872639528 165 158 138
13.9292056595818 36.2219351666869 607.711524281191 164 151 128
13.880780202012 33.8704023250604 607.98562863151 167 160 140
13.1056691559335 34.9612999030538 606.979280273173 164 153 130
-5.98190789024733 33.9195447154897 592.062948805591 180 182 182
-1.28215879160746 33.4336607322961 591.331948975982 173 168 161
1.0915998041977 32.5125008399425 594.076889700673 155 149 132
3.45644936379898 32.5192804773007 595.18795026322 167 163 146
-2.87970828664362 32.3351541797182 591.218742020795 177 175 165
-4.48095949687479 32.1651400483364 589.477318070782 215 216 212
0.264361585354322 32.1803579975054 591.716428697827 165 159 142
1.03821023559226 31.0912371256651 592.721138052323 156 150 133
2.63425412481456 31.2606983655628 594.456898835019 170 164 147
4.17438365375028 30.0124493034892 594.833629961684 174 170 153
4.99523762807081 31.268978263332 595.563488810067 177 175 157
-0.557833653630098 30.9217758857674 590.985377269627 165 159 142
-6.08379518174314 31.0622507462261 589.358894372302 177 179 181
13.7368354579833 44.1289710244305 618.356944272763 165 154 133
11.5703658715229 47.0604279998146 620.045032102611 165 151 131
10.1427992940521 49.8279391756493 621.075633288224 164 154 135
9.45389911910053 52.4200149777902 621.450087101673 177 170 150
6.53150110066161 30.0222294616694 595.935749349232 175 173 155
8.12233766887505 30.1911378100829 597.665846964611 167 163 146
9.71317423708854 30.3600461584964 599.39594457999 166 155 134
11.304010805302 30.5289545069098 601.126042195369 165 152 129
12.9624387716603 32.1149022341099 604.228134805254 163 152 129
13.806561349371 32.4469270448464 606.607224313891 168 163 143
12.2337071947153 31.3491317977942 606.521140615473 167 162 142
4.95467216417342 57.8492610653311 621.713692968272 158 153 132
2.67271950111802 59.3719689188691 621.975839021848 166 162 145
0.385717254700523 60.9017835970194 622.23142906006 169 166 152
6.49204078962401 56.5300214064939 622.097267147539 171 168 148
8.76515668179587 55.0197504960275 621.823648067076 176 172 155
15.9966959464966 42.6688827460341 618.061724757863 168 162 145
14.9846415352952 38.5073620812142 614.536001872034 168 158 139
15.073535430416 39.949592174227 615.927970991669 168 161 141
15.1651118548647 41.3959285710299 617.32232527094 169 163 146
13.096609540879 45.7686682704998 620.412515975239 162 151 130
14.8984301695023 37.069238291992 613.146417912034 175 166 145
12.4086562864744 48.3436479342945 620.790394488622 164 150 130
10.2466837069462 51.3042435136536 622.479381513783 164 154 135
13.9335586911666 47.0498350530846 621.156685781433 162 151 130
10.3532506491683 52.7846541554483 623.885514898977 167 157 138
10.2962133280438 53.7093943679556 622.199027227138 175 170 150
11.7752944303366 50.0012706559362 622.85103624214 163 152 131
5.86199241340131 58.2223892963119 624.156722668505 167 164 143
2.041645335525 61.077603088985 624.032316266903 167 163 147
3.58398467551416 59.7474267474872 624.422892885557 153 150 129
-0.245199173245794 62.6150774832318 624.287013457069 177 173 162
-3.39550265028885 62.8456414891834 623.771903548595 123 124 118
8.1349505679263 56.704458669749 623.883996436089 175 172 152
10.4028591390892 55.1936348677985 623.604714188309 176 171 151
12.5668166223417 48.8872758979528 623.878691650409 163 152 131
11.8817825037352 51.4778514396826 624.257616051357 165 154 133
10.4625001207181 54.2691711010332 625.294033443807 166 159 138
7.51010951271252 58.3973794510513 625.949115124372 175 170 150
13.4077895666211 50.1746021362231 624.626439196056 165 154 133
9.77786034622858 56.8788959330042 625.670725724639 177 172 152
11.2578095002448 53.1498462245904 626.326605863598 162 151 130
10.5744321215959 55.7577943504084 626.704937148271 172 162 143
3.69757341634948 61.2534225809506 625.833203473746 156 151 130
1.41593622858767 62.7914498666814 626.093563831229 167 164 148
15.5589327942121 35.4679980404466 611.107842058776 177 167 148
16.5048887007423 37.239805314858 614.893505029365 179 169 150
16.5937037270397 38.6782055498224 616.285920573023 177 169 152
17.4226052893438 39.9470534210362 617.022934900312 176 170 153
18.9875695936627 41.0401894728138 617.100970271777 175 169 152
16.092296164937 44.1213785985225 619.459656776587 168 160 143
16.9252215212328 45.3963859254218 620.200248843328 170 162 145
-1.37852328680077 30.5922390867096 588.631772013917 169 167 157
3.34982796423469 29.6844127648425 592.475554118474 168 162 145
0.987503196314492 29.6740797151781 591.367771563609 158 151 130
4.1211518227916 28.5988453053083 593.476985465288 176 172 155
3.30054105844431 28.2731383642988 591.122933785554 166 159 138
6.47700687386236 28.6104021696416 594.577465848995 173 171 153
-2.97607278183688 29.4937325341318 588.518565058731 172 168 157
11.2417055969894 29.1162978776558 599.759263944156 165 154 133
12.8948473735155 30.6978628553234 602.856139810748 161 150 127
8.82765460392426 28.6214061424908 595.672283065385 168 164 147
6.42519517639096 27.2026811814041 593.221567508393 174 172 154
10.4132838511288 28.78976159942 597.396717513447 161 152 131
12.8299385046984 29.2849297803272 601.486529975876 165 156 135
13.5999999674148 28.2011390269462 602.486322318849 171 166 146
12.9141710517372 29.7710291085799 604.501346307526 167 162 142
11.9406316840126 27.5516198827809 597.757951449748 166 155 134
15.3284652547756 31.1967428625782 606.964134354946 174 170 153
16.2248004775777 33.8749703964819 609.074036524788 176 169 149
16.1493192290961 32.453271822421 607.693993203329 175 170 150
14.5076112804551 29.9402139027355 606.234275506564 171 168 148
15.1882328751238 28.3697709296176 604.213588350569 173 170 150
17.8208443668 34.0444316363796 610.809797307484 175 168 147
17.9016118051139 35.470512959973 612.195057372237 178 169 148
18.8488301074847 37.2405435282313 615.982359346666 170 162 145
18.7614352146745 35.8080263032103 614.590689958802 166 159 139
15.3542586498468 30.2686853011658 608.616643022883 171 167 150
17.742759457814 32.6224566165766 609.426922402367 172 165 145
16.1764538888312 31.5272674129037 609.347694451083 174 169 149
18.3456869366009 42.6625141347949 619.157135090529 177 171 154
16.2915441898014 47.0386892148705 622.262676292939 171 163 146
18.4425495508819 44.1132332811304 620.556706113093 177 171 154
13.5236572707127 27.7196988939681 599.479554314152 163 156 136
16.0283316588427 28.6956362846686 606.589100119754 172 168 151
20.8972190656824 33.8824478648726 611.233862809394 166 157 136
20.8192130255198 32.4643027031177 609.850541480253 161 154 133
17.6191682270561 28.8645446330821 608.319197735133 158 152 135
18.4386809367127 30.1190204410297 609.047864003698 163 156 136
-4.57211667105918 29.3242712942341 586.782804276035 179 176 169
0.124075243026255 27.935874558956 587.668401722113 165 158 138
0.942246688018884 29.1882972150085 588.395875410861 168 165 137
-2.24219445006224 27.9232119116543 586.556595003772 174 170 159
-3.83303101827568 27.7543035632409 584.826497388393 178 175 168
2.485137615106 27.9479843147735 588.774545273138 159 152 129
4.02550375051192 26.7112248268447 589.149937127732 166 159 138
5.60852933721208 26.8793038380319 590.871539992135 178 172 155
8.72418894662826 25.8136238821123 592.959593536134 174 170 153
9.53833659762915 27.0598870824792 593.683489485429 172 168 151
0.0826781875726397 26.5292593536869 586.323829716146 166 159 139
2.44247816381181 26.5431458156574 587.428334263329 161 154 131
19.8605690433923 41.386744760858 619.509867928589 179 173 156
19.2252349720034 43.0116754662185 621.572888494475 175 170 150
18.5420946944907 45.5680587312562 621.958662295293 175 169 152
16.3951919962253 48.5035039787301 623.667763790568 170 165 145
12.7850000901479 51.8409903569296 626.697514436161 165 154 131
12.1028062385159 54.4433319185462 627.077931148698 164 153 132
11.0671045640001 25.8276283757835 594.045469577525 161 152 131
11.1187585238249 27.2276896479245 595.402260766174 161 151 132
12.6449228296915 25.9951544954866 595.761409274611 163 152 131
13.4654547252154 26.3170315784478 598.115907378369 159 152 132
15.045876651411 26.484834143893 599.834678659113 175 170 150
15.8742195284481 26.8075405640805 602.197671513846 176 172 155
5.35350149717397 61.4292420729162 627.634090680589 158 153 133
5.23730909583423 59.9229697937106 626.220948508741 162 157 136
7.62488178056481 59.8977687203134 627.361511140425 171 166 146
3.07707163042096 62.9678222501313 627.900114205389 153 148 128
-4.02357881126039 64.5707013952826 625.828980257192 164 168 161
-1.61138965497281 64.5423817693627 626.997112569667 161 162 156
0.79559218030596 64.5135092519588 628.159581714825 163 160 146
8.42524074345357 58.7713370192583 628.40063957558 179 172 152
20.411190751299 38.3334031342669 616.057563134474 172 166 149
20.501268173437 39.7700266630782 617.451617681973 170 164 147
20.0568190636353 44.2846296412227 622.312287981399 177 172 152
20.6407296728329 40.2887403582523 620.522772302289 165 158 138
21.2789040111965 38.6755756727786 618.461244047991 164 154 135
20.007920393125 41.9101176513067 622.589070875857 164 157 136
21.0989069045675 35.8099883312525 615.672242104946 164 154 135
21.1875641932181 37.2407288501204 617.065550496651 165 155 136
18.6443223674273 47.0269904851722 623.363003637127 176 172 155
21.0129321452447 34.383354116175 614.281318872876 161 152 131
15.7709035174414 50.1601793314449 625.738539298902 171 164 144
13.628655563755 53.1324228989902 627.447647141443 164 153 130
17.2905197323013 48.8619837007025 626.099613848419 177 172 152
19.4295325802299 45.9218792579542 624.382464026191 174 169 149
9.95732317907192 57.4477146108886 628.778997011554 169 162 142
15.881257647185 51.6352598547803 627.149589695619 171 164 144
14.4723110373623 54.4238554410509 628.197779846726 163 152 131
12.2173418998981 55.9322316136636 628.491666436821 163 152 131
6.2065458234286 62.735046678243 628.392571444595 155 148 128
8.54395793647427 60.2740558861576 629.81705975511 174 167 147
8.47524357749154 61.1994670218498 628.117606744796 166 159 139
2.39069575248436 65.619399074891 628.269064238306 168 164 153
4.66823027743106 64.0713824754263 628.005572565394 158 150 133
-4.64628991357625 66.3039739089625 627.89082728506 141 146 143
0.108111644175722 67.1745224989681 628.525999895855 163 162 156
-1.49093685317115 66.0663030783985 628.412493208898 172 175 171
-8.91437060913432 62.1592533895958 623.763223201308 97 101 101
-8.79778386367764 63.6846749590426 625.174133253039 132 135 132
10.8063437113348 58.7473597605299 629.533900036106 168 161 141
13.0636799028331 57.2277704595146 629.244184301739 163 152 131
17.4007949932214 50.3332343659897 627.511110669159 178 173 153
15.9942943062563 53.1144466819058 628.563025251971 166 157 136
15.3159665109694 55.7152879831115 628.947912552008 163 152 131
11.6553642435977 60.0470049101713 630.288803060659 165 158 138
9.39566099806501 61.5778073395893 630.574347939298 171 164 144
8.59403963933568 62.7060157467975 629.533580500302 164 157 137
19.5357051783349 47.3831406095075 625.790829531502 176 171 151
19.6445603057677 48.8485082648512 627.201580196448 173 168 148
17.5137527834694 51.8085913350671 628.924992649535 178 172 155
13.182239358207 58.7228296103174 630.661497329315 156 146 127
16.8366085151996 54.4038260720714 629.311965377436 164 155 134
15.433105832856 57.204464123971 630.36447942379 161 150 129
6.32676201876001 64.247478413134 629.809291355895 154 147 127
4.05443481482223 65.7960479040829 630.078446196125 157 149 132
2.51241095012665 67.1415436777738 629.686083881377 170 166 155
0.967862293749931 68.4905928637707 629.290443558948 167 166 160
21.6685429242393 32.7968804053385 612.235294156208 165 154 133
22.6975544542943 35.9797260168923 617.410834471301 163 153 134
22.608976034467 34.5528153560726 616.017079655572 159 149 130
22.056539848956 37.5811246824791 619.47087041401 163 153 134
22.1518245921027 39.0183011027746 620.870588128826 164 155 134
21.520198839412 40.6340718316276 622.938972130259 163 154 131
20.8395044847569 43.1830718263108 623.328470362781 165 158 137
21.6710885763887 44.4560260013149 624.067869849705 164 157 136
-0.734151992756097 25.2788898495296 585.597548607216 167 160 140
-2.2823291096754 26.5148200002322 585.213662001645 171 168 154
1.62698924814697 25.2948294633953 586.703245734217 159 150 127
6.33364976692644 25.3250500166743 588.897650486267 177 172 152
3.98292316804117 25.3102161857769 587.8032796939 166 159 138
7.91146803261768 25.4925761363774 590.613590183353 173 171 153
3.94302511489826 23.9133138484994 586.459007419704 165 158 137
4.7080369942525 22.8366299197307 587.452243747313 177 172 152
6.29248931794308 23.9299243855499 587.551739208229 175 171 154
11.0181331335035 24.4316734074329 592.691063548512 164 155 134
-4.64062348010077 27.4299788509418 582.486603626952 147 150 146
14.1685623438771 24.7661727553549 596.117279775367 165 155 136
14.987752974737 25.085996686421 598.470585299307 173 167 150
18.2067205038024 26.8204392747833 603.272221220602 171 167 150
13.3545790340261 24.4469017157729 593.769637418745 165 154 133
13.3570972222041 23.5240158587783 595.395768985708 165 154 133
8.63674619997897 23.9459820311163 588.638807829438 174 172 154
10.2093571446613 24.1129552593351 590.349084359207 172 167 147
18.1433895061195 25.4210489258271 601.902464693479 173 169 152
17.3189915542507 25.1006721032768 599.543496002222 176 172 155
16.5075264325777 23.8585152067002 598.821985212563 175 171 154
19.0402707018484 27.1436985864549 605.640877242652 162 155 135
15.6896770663817 23.5407444275293 596.469872268441 173 165 148
14.8795532093726 22.3006406828478 595.749554058599 171 161 142
20.743889514685 31.0502638451533 608.469605310747 163 154 133
20.6958584012322 28.7178802937681 608.741477540949 166 155 134
19.1347601532582 27.6232439815794 608.667912756983 161 151 132
21.5126885815608 29.9682497979253 609.467758649879 164 153 132
21.5892744882361 31.3805119497367 610.850333823226 164 153 132
20.5534167051929 25.9097812053066 605.985867832797 158 149 128
23.1775073959452 31.5491438524081 612.577599854946 160 151 130
23.2593794924528 32.9657887537519 613.965391771586 159 149 130
24.1165203726856 33.2991957931988 616.358639198517 163 158 138
24.296202004021 36.1494637025319 619.149426837655 166 159 139
23.4726655003727 34.8888284388989 618.417182829637 165 158 138
23.8372997065783 29.9764893133537 610.534260029684 160 151 130
22.3504416663799 41.9049728547366 623.677179037365 163 154 131
21.0490094139922 46.0938285095306 626.143709061814 167 160 139
22.4537739975103 43.354468186403 625.084052231087 162 153 132
18.0247750987373 22.6345871392857 599.170107118137 176 172 155
18.8348989557464 23.8746908839671 599.890425327979 175 171 154
23.7621339333904 28.5701101714857 609.152431012131 165 156 135
25.342555859586 28.7379127369308 610.871202292876 172 165 145
25.4203252932784 30.1445683245409 612.255862894087 170 163 143
25.5007772562988 31.5553302159413 613.642908654933 162 156 139
22.9479862823895 27.3238469711187 608.428535062837 164 155 134
25.2674689552214 27.3353634531111 609.488926851301 174 167 147
22.8768443031933 25.9236272849363 607.050283784737 159 149 130
-1.52461688574073 25.8852691243632 581.652090520216 166 164 154
-6.24338029614574 26.3309194068797 582.367733504449 207 210 207
0.787388583515678 23.5782616090933 583.027128025531 156 151 131
3.13021872856126 22.6691038000277 585.736304050226 166 159 138
0.811500332482183 24.0465131111332 585.978157205104 157 150 129
-0.758342610545867 24.8068084894414 582.646965851666 172 169 155
-2.33876453674162 24.6390059239963 580.928194570922 180 178 168
-7.09513781507871 23.6727108827845 580.304182560709 193 193 193
-5.49103973436979 24.7738234787416 580.42424526303 200 202 202
4.66955907459698 21.4456105923967 586.10871762891 179 174 154
7.01649848596071 21.4657745417534 587.198171409754 175 173 155
7.82662234296981 22.7058782864348 587.918489619596 175 173 155
10.1670131686607 22.7234361924121 589.001087653305 174 169 149
10.1194552681483 20.4140317893164 589.270281339367 164 157 136
11.7370204528387 22.8901329748889 590.708532599416 165 156 135
10.9282378604935 21.6520823821026 589.989406969391 162 155 134
9.35823057631552 21.4853855996258 588.281962023281 172 167 147
13.3070277370166 23.0568297573657 592.415977545526 162 151 128
14.0682524288493 21.9854759470563 593.404296861612 163 152 131
12.4982451446714 21.8187791645795 591.696851915502 164 153 130
1.51912986422332 21.1111112444747 582.682501402055 159 152 131
-0.0254178028212664 22.3340515606216 582.304424656054 159 154 134
2.33059498589637 22.3532681410513 583.404012191715 159 152 131
-0.00836910280418124 23.260925689706 580.699306754519 171 165 148
3.87127659659598 21.1318280853155 583.777618350216 177 170 149
24.4866137526678 39.0161568270265 621.949755115335 167 158 135
24.3900666136805 37.580757112884 620.548398396677 165 158 137
23.858854056322 40.6304272954685 624.022609704267 163 154 131
25.413403718623 41.7224575642778 624.089318741098 164 155 134
22.5597888579684 44.8080698218599 626.493310584445 162 153 132
21.8832760349519 47.370888988325 626.885493708373 164 157 136
20.4815094560553 50.129675047436 627.945750002642 175 169 152
18.3547257277488 53.0959175733374 629.672740195182 177 172 152
17.6789227241429 55.6932054622368 630.060905502901 164 155 134
12.4547176416538 20.4348666618578 590.346769781736 163 152 129
15.5895248890008 20.7677073353273 593.755996506639 171 166 146
14.0221212653273 20.6012869985925 592.051383144188 165 154 131
17.1569285126743 20.9341276720619 595.460609869091 174 170 153
17.9643698403555 22.170125112953 596.178542919298 176 172 155
21.1570641579063 23.8903136697498 600.953202276078 161 154 134
21.2176337574379 25.2817678568675 602.32102006759 161 154 134
21.9801208451112 24.2086373404049 603.310978387517 162 153 132
8.71551823050771 64.2166707755354 630.951939415443 161 154 134
10.2473640596558 62.881558793021 631.331636123486 171 164 144
6.44966074341932 65.7640164518154 631.228396426831 155 147 130
4.9115029350686 67.1080119650951 630.840504699583 157 149 132
11.7766850971228 61.5500002228127 631.708054823847 163 156 136
2.63680867709661 68.6677945844468 631.105488684084 172 168 158
-9.30106795356221 66.9551350620561 628.648382644226 199 203 203
-10.1702074557839 65.6246926339872 627.875590922409 197 202 199
-2.9187410264442 68.9484335499388 629.426870090153 170 174 174
-4.52307571362337 67.8358313798369 629.308146659902 179 184 181
1.09233888954338 70.020673628492 630.709401937632 164 165 161
12.5770440600116 60.4235685217576 632.747183259003 157 148 127
24.7923503455968 43.3469937921957 626.168136229119 164 155 134
23.3927142142642 46.0830771487592 627.233902651186 162 153 132
26.7183860573961 37.5798366518049 621.620263212028 174 169 149
26.8161955922239 39.0134596597942 623.023258934526 174 169 149
26.530814575724 34.7249095471972 618.821427245937 174 168 151
25.7099606014035 33.4683805873544 618.091568397554 175 169 152
26.6232590518961 36.1503199476059 620.219652649165 176 171 151
25.6215399192231 32.0491296426313 616.696920733779 169 165 148
21.2692444605389 49.0210104079117 628.968488399388 163 156 136
20.5943883774799 51.6012021584651 629.360078407041 177 172 152
18.4717073119885 54.5774339981003 631.09019991501 177 170 150
22.1061936108265 50.3021771904966 629.712658205583 165 158 138
23.5027528687143 47.5428382399015 628.646738743996 163 154 133
24.8996276018956 44.7988187214994 627.579033586317 163 154 133
14.1025779099571 59.0973400700086 633.118684947841 158 149 128
19.9872208640333 53.2692490536242 631.448143149098 178 171 151
18.5913714255562 56.0630567266536 632.510044794474 174 167 147
15.6255869682215 57.7746650305657 633.486908628997 163 154 133
5.84509639581108 67.4953942276415 633.310510964332 157 147 128
8.11079614525266 65.9403888352651 633.034946800991 165 157 140
9.64382550141789 64.5996702885493 633.416728936898 174 167 147
12.702309838705 61.9288934320363 634.170459185667 157 150 129
10.4479716518282 63.4679084690351 634.460774383576 170 163 142
3.57434706300751 69.0575064446304 633.579519112309 159 153 137
2.03121854011812 70.4124386405708 633.184624945674 168 164 153
-2.79284429716353 70.4843973246035 630.84657462463 157 162 159
-2.6642650385549 72.0244674030586 632.268664318743 129 132 129
0.485565225547759 71.7709242488174 632.786452771358 200 199 193
13.5039311974344 60.8006850248282 635.211226624663 159 150 127
21.500209624397 51.9646175214543 631.802808375503 169 162 141
20.8281938083126 54.5565752918945 632.195890694745 178 171 151
17.2711004070282 57.949378739563 635.276469501206 176 169 149
15.028123782716 59.472403421184 635.581535733684 164 155 132
12.8302581467265 63.4383246461054 635.596120271966 161 154 133
11.3023572427467 64.775766226257 635.220447727399 171 164 144
14.3556342590252 62.1044364782598 635.968514808851 162 153 130
9.77193154708601 66.1167612187149 634.841497175151 177 169 152
8.23898105974422 67.4613096234788 634.45926861522 165 157 140
24.2879630815168 46.4377270126835 629.66619913306 165 156 135
24.3370194896739 48.8198987186959 629.388523390556 163 154 133
24.4510819381157 50.2858192655238 630.804937222819 163 154 133
25.1222297024765 47.7147874914779 630.407983779619 163 154 133
23.059966607707 53.0572006817478 631.875180579652 165 156 135
15.8784855796428 60.7741017227205 636.337631338054 167 158 135
19.5090274479784 56.4334608825544 634.964847253364 175 168 148
5.97470144378997 69.0221980257988 634.735578934355 160 150 131
4.43543897724561 70.3756299613282 634.34515535522 158 152 136
27.0033508799786 30.3126473357281 613.97746575849 168 164 147
28.8514019067497 34.72698960694 619.884350886289 172 168 151
27.9422061190722 32.0550395604223 617.759397950107 172 170 152
28.0318891970932 33.4725137989924 619.155684617723 173 169 152
26.9166876563797 40.4511889715739 624.42863981666 174 167 147
27.0198622498632 41.8930245871438 625.836405858429 173 167 150
27.1257193726746 43.3389665065041 627.246557059833 172 167 147
-2.36824794786679 23.2432093696872 579.595248631359 171 168 161
6.20637462895161 20.2256707970719 586.477853199912 177 175 157
3.06115273958687 19.8917243406341 583.057300140374 176 171 150
4.63376368426924 20.058697568853 584.767576670143 176 172 155
7.74066539162516 19.0092844140533 586.843710763232 175 168 147
8.54944798397037 20.2473350068396 587.562836393256 174 169 148
5.36187551510204 17.6045370387902 584.417140187097 177 173 156
6.17065810744725 18.8425876315764 585.136265817122 176 172 155
3.82363982726014 18.8185938241716 584.047258460301 175 172 152
9.27243136261774 17.7964514433409 587.20629031887 162 153 132
10.079872690299 19.032448884232 587.924223369077 162 153 132
12.4138726679639 19.0550604629264 588.999072807605 164 153 130
-3.18105433420374 21.9989993212154 578.872545261882 181 178 171
21.0991770877025 22.5029657864226 599.587769644202 161 154 134
20.2917357600212 21.2669683455315 598.869836593995 167 160 140
22.8083848533249 24.5275139025442 605.674417666273 157 150 130
23.4882961339169 22.9856566419172 603.648966538275 157 150 130
22.666580711376 22.6693861231572 601.292383006654 162 153 132
16.3048616272846 19.2429865953873 591.76720927395 168 161 141
20.2340130309673 20.8066126229891 595.880657554791 175 169 152
24.3152188774668 23.3024800521613 606.011213237213 167 161 144
24.3835994585117 24.6947635765052 607.387525779701 168 161 141
24.4546625688845 26.0911534046394 608.766223481823 167 160 139
20.1854359445875 19.4298069448798 594.524019405661 177 171 154
19.3846286749055 19.1195778501048 592.189642119285 177 171 154
26.8452872209127 27.5028895728142 611.204866548387 171 169 151
27.6580936072497 28.7470996212859 611.927569917864 171 169 151
26.6283107022728 23.3190502068708 607.063856430496 172 168 151
24.9939466310417 21.7662293557357 603.983676681351 171 165 148
26.6979536791582 24.7095570250616 608.441807976824 171 167 150
25.8195281099275 22.0809996140845 606.344730800472 172 168 151
28.4231054866039 27.6704156925173 612.920806245473 174 172 154
28.5033997119775 29.0735178678212 614.308744854366 171 169 151
28.5863764666787 30.4807263469154 615.699068622893 173 171 153
30.2576649979125 32.0603965867292 618.816211999118 171 165 148
30.1694020533788 30.6488053581026 617.420671487297 169 165 148
30.4904273260628 37.2359412228352 621.341683423419 174 169 149
29.6709146164063 35.9814654148876 620.613017154854 176 171 151
30.3486104717738 33.4760941191462 620.214137670575 172 166 149
27.5080775361674 25.9496607697431 609.162126186666 172 168 151
28.2705646238407 24.8765302532805 610.152084506593 170 168 150
28.3454937905584 26.2714198210037 611.535252796215 170 168 150
28.5205425271154 40.6214795486978 626.172895350332 174 168 151
26.513897114649 44.9702150815916 629.334615454623 174 169 149
28.6263207811033 42.0635916100098 627.583492975759 172 168 151
21.7450285867477 19.5953979443883 596.220138017138 166 159 139
22.5536468379431 19.9064563763895 598.563010054489 162 153 132
23.3584056362965 21.1383475134903 599.278557945061 160 151 130
24.9206019389611 21.3042149587408 600.977508140195 162 152 133
28.1983179864507 23.4857469893476 608.771301376606 170 166 149
29.9207083957452 26.4386694949647 613.248360909643 170 165 145
29.843175568523 25.0435034814994 611.862361036362 173 168 148
30.0009237522953 27.8379418122203 614.636745942559 171 166 146
30.8137301386322 29.0821518606921 615.359449312036 170 164 147
28.1287538783886 22.0990700292051 607.392903406255 172 168 151
27.3213125507074 20.863072588314 606.674970356048 171 167 150
1.50819415542588 20.6519016872418 579.744737292728 157 152 132
-0.0364323804420223 21.8710121453403 579.367106970751 171 165 148
-1.63129934615029 20.7766118965528 579.2562851752 171 165 148
-0.0840691497779176 19.5577778841963 579.636747080836 157 150 130
-5.54748176493905 21.9786769578173 577.761631391587 169 166 160
2.24285457193162 18.2003472005583 579.401156556818 162 155 132
3.81025819560506 18.366767537293 581.105769919269 179 172 151
3.05029589961288 19.4363446414494 580.119089607024 162 155 134
4.57022049159724 17.2971904331367 582.092450231515 178 173 153
-0.870595721097175 19.2471543119786 577.318166716594 174 166 149
-2.41916718213349 20.4639351724399 576.93651223114 180 176 166
-6.36162941593994 20.7324137574503 577.037735442293 160 158 156
8.47817267860847 17.4888283919452 584.878768779629 172 165 144
12.375710223602 17.6793605677854 587.653760993109 166 153 130
8.44655881991935 16.1157345401835 583.540312712268 169 160 139
10.8016725419292 16.5871718849346 587.565591866827 162 149 125
14.7032404844175 17.7031959611488 588.721308260479 162 151 128
15.506658018107 18.9330339463544 589.435663571232 166 155 132
14.6664981735428 16.3333790759512 587.376742601777 166 155 132
12.3283889295598 15.3814457388344 587.921615407101 167 154 130
15.4594155928881 16.6389489754517 589.703071561201 168 161 141
17.0255634242242 17.726478463028 589.783192360531 167 160 140
18.5825524058799 17.8917930167944 591.476479388349 176 171 151
1.4602729257806 17.8920532259779 577.086600356051 160 151 130
3.78377278910136 16.9903967189672 579.773423443249 178 171 148
6.88436251725471 15.9498670949329 581.841362517133 177 172 151
29.8636934190873 38.8369454109795 623.417516288262 174 168 151
28.0156820500949 43.689233620896 629.673636798414 174 171 151
31.4597373083097 39.0064066508771 625.153277070958 171 165 148
30.8435757809987 40.6161763380861 627.239543422388 177 171 154
26.6264605607799 46.4264227604278 630.750729555115 172 167 147
25.2375545467588 49.1789313321527 631.826036615724 164 155 134
24.5678269158852 51.755846116142 632.223736214717 167 156 135
21.7419049055665 54.9246498501581 634.646668990159 166 156 137
15.421410886173 15.2709087964071 588.356866898659 165 155 136
19.3374651185101 16.8293227372503 592.45660368523 179 174 154
19.2955943554499 15.4627828186168 591.105928435189 176 168 151
18.5419440386603 16.5234763920078 590.127443142148 174 169 149
17.7412090342986 15.2977447105925 589.41547299103 175 169 152
21.6545873408108 17.7713847923339 591.889971058685 176 171 151
24.864213871068 19.9265799434052 599.61237524009 163 154 133
25.6780394432722 20.2381912668907 601.960910444759 169 161 144
26.4970723364854 20.5503554818603 604.315108816745 172 168 151
12.9608889840757 64.9518621639647 637.024166517901 162 153 132
9.17778184149557 67.8492447775094 636.934938047286 177 169 152
14.486186227551 63.614144138071 637.397007478809 163 154 131
1.43099346179531 72.1652953042756 635.268531526535 171 166 155
-0.115843379792238 73.5293874767235 634.868273924354 168 167 161
-2.53300325061844 73.5686437853039 633.693139172492 164 167 164
17.3988121085794 59.4473203794873 636.703469859575 176 171 151
16.0089586793451 62.2799795244834 637.766570432035 168 159 136
28.8459248770628 44.960134644005 630.41184370552 173 170 150
30.9506164308272 42.0565116932451 628.651780051657 174 169 149
26.7417065362389 47.8867367430543 632.169228815243 173 168 148
32.7550148244755 34.89714867787 622.668877391043 163 152 129
31.3594029818008 37.5763370551939 623.747003340778 169 164 144
32.7081555388987 35.811505099201 620.995055325908 170 163 143
31.8913253585699 34.5611355950438 620.268774216978 174 167 147
32.8525877528332 36.3192821117146 624.073212385612 164 153 130
32.6601244254458 33.4791215478159 621.26692755611 165 154 133
31.843294245117 32.2287520436585 620.54064644718 166 157 136
26.0731624323824 50.4580449628423 632.5690138421 164 155 134
23.9697327797925 53.4229456423742 634.32193471159 164 153 132
18.916613845835 58.1240924485603 637.066030373415 176 169 149
21.866776340143 56.4108254701955 636.07217703694 170 161 140
25.4762518233068 52.1195379248731 634.669297766837 163 153 134
26.8596350410255 49.3511570294712 633.590113235005 170 165 145
28.2433337340378 46.5980955662622 632.50914300708 172 168 151
31.0603396099835 43.5009533521944 630.06640184056 174 169 149
16.8105800380745 61.1517711172752 638.807337871032 174 169 149
23.3770037023554 55.0982577761871 636.424903527733 162 151 130
18.3295653023472 59.8229366221469 639.171983812735 176 171 151
10.7093910641735 66.5026432208503 637.315974027399 176 169 149
6.91744715070973 69.4124627774666 637.215272529897 162 152 135
9.31259421048338 69.3766014671508 638.365669184627 174 167 147
7.77853906494789 70.7305862941644 637.980908772809 164 154 135
3.11035448715978 72.3436028079199 637.094902986304 157 149 132
4.65206287656179 70.982787602036 637.489050997145 158 148 129
11.5664591844198 67.8146072818625 638.078032530857 175 168 148
13.0942023507528 66.4695059856144 638.454597923471 160 151 130
16.8606617409359 63.583730977915 638.523858616223 168 159 136
15.3392305538056 64.9199487433977 638.155488242815 161 152 129
0.836133442128187 73.926364575561 637.357208426665 170 166 152
4.7897155125242 72.5219103115643 638.921274446074 159 149 130
-1.44313718626546 75.5162331678143 637.612957851663 191 190 184
17.6622830996652 62.4555225707069 639.56462605522 176 171 151
26.98024607514 50.8196836196783 635.013382814403 173 166 146
24.8847062728868 53.7892434944847 636.774352010845 162 150 131
22.789639683574 56.7817825175807 638.532642663147 166 152 132
21.4098065522406 59.5963981553037 639.609301690358 171 161 142
20.5621272846417 58.2988061575576 638.855591245623 171 162 141
18.4639044583946 61.3273141634987 640.605393494216 177 172 152
14.7553377525861 66.6458783690642 640.261148297631 160 151 130
15.560746298837 65.5123398433968 641.30683274815 163 154 133
12.5104672871801 68.2030953273773 640.55936513024 160 151 130
17.0820986171439 64.1722922198658 641.675649545582 176 169 149
28.3611833700012 48.0586859946308 633.930473850866 173 169 152
30.4575907293118 45.1312545583551 632.164593990167 174 169 149
27.7679810796237 49.7110189801541 636.036121211149 173 169 152
26.3898840517372 52.4837826250886 637.120522486275 166 156 137
30.5740202317877 46.5859619767803 633.585178678159 177 172 152
18.6009261437698 62.8357980086409 642.041188335332 174 168 151
24.2985257811226 55.4671616716769 638.884176574123 167 150 131
22.9211385726468 58.2743940390456 639.96456003304 166 152 133
2.52070178850153 74.1052249706895 639.189243053753 156 150 133
31.4157865132054 25.2104767097183 613.572637566131 163 156 135
32.2259103702145 26.4505804543997 614.292955775973 163 156 135
32.3915484043234 29.2496779803952 617.075389009122 163 156 136
33.2446654905645 29.5769255641566 619.4650586966 163 151 132
32.4783912153698 30.6553861990784 618.47018336515 163 153 134
33.3354532267791 30.9849633804771 620.863877216103 164 150 130
32.7069048421992 32.5609352684366 622.941196045268 164 151 128
33.5250762871919 33.813357924489 623.668669734016 166 153 129
33.055781197532 39.1758678907747 626.889037853654 163 154 133
33.1614017138731 40.6103202359904 628.300528327128 162 153 132
33.2697047595422 42.0488788849962 629.714403960237 161 154 134
-1.65191497140762 18.9370836312452 575.005249519668 166 162 152
6.10185973992714 15.6454029784008 579.526359892344 178 173 152
11.5525202102314 16.0027499684184 583.990168546142 161 150 127
10.7504439412058 14.774965135108 583.277005815206 161 148 125
12.3074329228616 14.9402796888743 584.970292843024 162 149 125
7.63646597789437 14.4443360275752 579.89043175957 178 174 150
9.19345495955014 14.6096505813415 581.583718787388 176 165 142
12.2773180664831 13.5768987051044 583.632136507434 163 150 123
13.0309683832727 12.5162051317134 584.610621800474 165 152 125
14.6193346171474 14.0431239630967 587.643704167723 166 155 134
13.8317033876344 13.7419368131287 585.322591951593 163 150 126
-0.104527037388436 17.7259093349852 575.384818577258 174 164 145
-4.80190198382496 19.0568581995396 574.505917491529 175 172 166
26.3674973141585 18.7183657856263 599.942914527437 175 170 150
24.0058350064758 18.244322397496 595.910779625744 164 154 135
24.8105083325028 18.55305123186 598.24962749962 163 154 133
23.2063690014577 17.9361464546161 593.577594919185 167 160 140
27.1799816216988 19.0279239572167 602.290257152289 172 168 151
28.739574263859 19.1935149567251 603.986375763765 172 168 151
26.3138706444167 17.3486669321293 598.579720362944 174 169 149
27.1224100267887 17.6558955060823 600.923038824319 175 172 152
17.7046244610708 13.9355875414914 588.070014484282 174 168 151
18.4948593510882 14.2370511372015 590.39395828407 174 166 149
21.6075815220622 15.488789395576 592.156039776584 168 161 141
23.9143613676656 15.5142430810509 593.200487950661 163 153 134
23.9587569224068 16.8772295873782 594.554441208385 164 154 135
25.5105385830536 17.0419912496605 596.242065068886 164 154 135
23.1163088926318 14.292617703426 592.490902959178 163 153 134
23.9194964233541 16.4302985591754 591.583743982721 165 158 138
21.5671308924894 14.1281324868859 590.806110682336 164 157 137
20.7690784174555 12.906507109261 590.096525690853 168 158 139
32.0710024534169 23.6679081435656 611.520063181365 161 154 133
31.2388723888581 23.3505318418374 609.15215331511 166 161 141
33.7646803318421 27.5332923326601 614.3435681589 162 155 135
30.2991669060191 19.3591059562336 605.682494375241 168 160 143
31.9060019733981 21.8187819266448 607.111204996749 168 161 141
31.1025844397087 20.5889439414392 606.396849685995 169 161 144
29.4226412867192 17.678743148178 601.960631251262 175 169 152
33.7171224313296 25.2238879295644 614.612761844962 166 153 130
32.9083398389844 23.9858373367781 613.893636214938 167 154 131
34.5259050236749 26.4619385223506 615.331887474986 164 150 130
34.6086451719059 27.8576574273001 616.723550515584 164 150 130
34.1977225591975 31.3150934533599 623.263234234374 165 152 125
34.8250874167602 29.7447281296017 621.183829977344 165 151 127
36.1812561165884 28.024630655519 618.433827045353 164 150 127
33.6721004624898 37.5737579196622 624.801878654177 161 150 129
35.8794140333079 36.1482160130597 624.443924222032 164 151 128
35.0625838529791 34.8978465089024 623.717643113102 165 152 128
35.7339677291441 32.4013587439264 623.310568609619 167 154 127
33.4655946155583 21.9843729261533 608.807323608225 156 149 128
33.5623722521789 22.4488753348268 611.838976402307 163 150 126
32.6667981412236 43.6715203750604 631.813488957891 167 158 137
34.0460782014611 40.9562046008498 630.722391322415 165 152 129
26.2159338922601 15.5391438750417 594.239272957422 167 157 138
27.0127173679504 15.8432135141312 596.570072504345 172 166 149
26.2146648929166 14.6215881365063 595.860487512862 175 169 152
27.8147081646496 16.1478360447049 598.906535218586 176 171 151
29.3664898252964 16.3125977069871 600.594159079086 174 169 149
33.3975295098069 20.6074088340024 607.429225369644 164 150 130
34.221769724029 20.9201259404562 609.789086908947 162 149 125
35.9332722783653 23.8489635148153 614.25749865149 165 151 128
36.0132510284451 25.2367462579262 615.647222956476 164 150 130
35.0512172592599 21.2333959383941 612.154611615568 163 149 125
35.8559760576133 22.4652870754948 612.870159506139 165 151 128
36.0959123078528 26.6286353048275 617.039332421097 167 152 132
33.3321469333835 19.2345510456418 606.053512290699 164 150 130
34.1524422224371 19.5449385544583 608.409349666526 165 152 129
33.2694468862879 17.8657995610717 604.680184371388 168 154 134
31.717665225641 17.7010378987894 602.992560510888 162 154 137
1.44033610494972 16.5182884510315 575.761109627166 165 154 133
4.56965157097841 16.4039620328968 576.23689613799 171 163 138
-0.879297702026008 17.4184446976311 573.078757127467 170 166 156
-4.81939288179825 17.6757101542388 573.184151194348 208 205 201
1.45567360766694 16.073332925364 572.850322082355 176 166 149
3.76757530195283 15.1761771995864 575.523733407054 171 163 138
5.30612646508831 13.9774398463981 575.891829437757 196 191 170
6.10686146945 15.2031715278133 576.603799588875 185 178 155
-0.892685937184183 16.047285966064 571.760122145716 196 191 180
-6.42214969784322 16.5766507101767 573.065281071845 194 192 190
15.3534490607262 12.5471473496891 585.67161305248 164 153 132
10.7228848914926 12.9767359711049 579.012564744442 175 162 138
12.272062891635 13.141221187645 580.697357021284 164 151 124
17.6707224171707 12.5775366761807 586.726941137169 173 166 146
19.2199004173132 12.7420218927208 588.411733414011 177 169 152
15.3234919419945 11.1914260820156 584.332563868843 169 156 133
18.4063358630603 11.0912729307647 584.755149753697 178 169 148
19.1860772422366 11.3878008854583 587.068213642875 178 168 149
23.0759371318824 12.9357906527841 591.140527440907 163 153 134
2.9862015943001 13.5116494481893 571.904553450577 232 222 203
2.99809082714745 14.8730953117647 573.222888700557 174 165 144
8.42258136624162 13.8693909156495 576.352565182242 185 182 161
9.9534792855107 12.6774839413314 576.711273613922 187 180 157
35.2629370307032 37.7426662680758 626.531976269556 165 152 129
32.7818075102122 45.1203447835422 633.233327490088 165 156 135
34.1583261722985 42.397092847493 632.140291119 164 151 127
36.7496520848862 36.4868351392653 626.850883143232 165 152 125
35.4256737369923 38.2562082588321 629.629507990845 166 152 128
35.367137413557 39.1712356033479 627.942720587235 167 153 133
36.2478689759766 39.5147903705701 630.360559419046 165 151 127
30.6931322635915 48.0447756989957 635.008148525786 174 169 149
28.6049302299112 50.9921857627389 636.780291017343 174 168 151
25.8048870869901 54.1560942380795 639.232432477418 166 151 132
24.4299458013719 56.9559433350937 640.316540368039 167 147 129
22.2792259215125 11.7162184270544 590.432135029242 162 152 133
21.4942772213274 11.4191375808767 588.113407972747 168 158 139
22.2428779547549 10.365550832098 589.085337250424 161 151 132
26.9266942601224 14.0445091080037 592.241251165229 165 157 140
26.1326655790803 12.8290431860642 591.535243913199 167 159 142
28.5123713611662 14.6479891909081 596.894801932123 177 171 154
28.5670960855987 15.088919177467 599.883381507786 176 171 151
15.6110646081686 67.9557892781813 641.022014221272 159 150 129
16.4164731544195 66.822250752514 642.067698671791 164 155 134
10.260547238412 69.7674191103028 640.851025947486 175 168 148
12.6504869771767 69.7310049085029 641.995759434898 159 150 129
11.1216391526502 71.0855426270007 641.616662190397 174 167 147
6.46907653788867 72.7002178152086 640.747645905844 168 158 139
8.86935204984786 72.6610795383288 641.904152151914 178 171 151
8.0055776062818 71.3388497178406 641.136130749368 178 171 151
18.6510867154545 65.2715877273289 641.757262656501 175 169 152
2.66245708727911 75.6543369939515 640.624597818112 156 150 133
4.93005067781445 74.0651393248828 640.355883054639 159 150 129
-0.482008118167869 75.9160927557732 640.111579684768 171 167 157
-5.33447461452818 75.9965001107878 637.74104267141 163 167 167
21.5440668394646 61.0969458386074 641.043157795862 173 166 146
20.167310581576 63.934817070362 642.119969862592 175 169 152
32.1882897445412 46.7573583368725 635.340760546465 165 158 137
34.2732566724637 43.8420873979264 633.560576075221 166 153 129
35.6473294116923 41.1262187322315 632.463815272428 166 152 128
32.2371884150515 49.1318703267886 635.063977652006 176 171 151
37.3649455604737 34.8979914484506 624.760745667844 166 153 126
37.2196569939568 31.1587938954139 623.626497207384 165 152 125
36.4055093429559 29.912530695047 622.902601258089 166 152 128
37.2675303697629 33.4835177307026 623.355517825229 163 150 121
38.8479522959585 33.6513202961478 625.074289105973 166 153 126
38.2338423473882 35.2345574227611 627.166512009226 165 152 125
36.3121968150602 28.5080462910326 621.500504730903 166 152 128
28.7308274538581 52.4650951024785 638.208777340035 170 160 143
23.0553199910473 59.771111864301 641.398862562567 165 151 132
24.5640483509491 58.4488313023008 641.75128932159 169 147 129
25.936228238416 55.641046043448 640.665242695356 135 95 78
29.5691178688095 53.7483150369585 638.954139726047 134 107 92
32.3589829761831 50.5947903527944 636.489332659268 169 167 149
34.3908697019568 45.2911882521503 634.983246191077 165 152 128
34.4396106348203 47.6580405259697 634.707356144665 162 155 134
36.4722071800046 42.3889071477598 633.197251860264 166 152 128
23.1051650874385 62.191582150796 641.116722579829 171 163 146
