ply
format ascii 1.0
element vertex 971
property float x
property float y
property float z
property uchar red
property uchar green
property uchar blue
element face 0
property list uchar int vertex_indices
end_header
-25.2025296466569 -50.7155540858517 629 90 91 79
-25.1624620319563 -67.7606404979483 628 89 94 83
-25.1624620319563 -47.2097821692463 628 88 87 73
-25.1624620319563 -66.0480689705565 628 75 77 67
-25.1624620319563 -45.4972106418545 628 62 64 47
-25.1624620319563 -48.9223536966381 628 83 84 72
-25.1223944172558 -69.3625858915418 627 48 52 45
-25.1223944172558 -52.264140864875 627 78 79 67
-25.0823268025552 -53.8879024562697 626 100 101 89
-25.0823268025552 -64.1306073239189 626 79 81 71
-25.0422591878546 -55.5062099982141 625 92 93 81
-25.0422591878546 -62.3237718110796 625 97 100 88
-25.0021915731541 -58.8207269191994 624 84 83 77
-25.0021915731541 -60.5223903476907 624 75 74 70
-25.0021915731541 -57.1190634907082 624 77 77 67
-24.6821299737534 -4.62646739446136 661 119 114 107
-24.6074487938025 -76.4968407608306 659 156 160 160
-24.2713834840238 -27.5928351852767 650 121 119 99
-24.1967023040729 -25.7408221320427 648 130 128 108
-24.1593617140975 -29.2298686354374 647 120 117 97
-24.1220211241221 -30.946349067487 646 114 111 91
-24.0846805341466 -23.8627207114898 645 116 115 93
-23.9726587642204 -22.0009814392878 642 109 107 87
-23.935318174245 -20.2186891489749 641 116 114 94
-23.935318174245 -32.454849090706 641 123 119 94
-23.8979775842695 -18.4418509081122 640 85 83 65
-23.8979775842695 -6.22478013945709 640 111 103 87
-23.8606369942941 -34.0961547103843 639 131 126 96
-23.7859558143433 -37.4636669810801 637 135 131 106
-23.7859558143433 -16.6182899820623 637 71 67 51
-23.7859558143433 -35.7265522311619 637 137 132 102
-23.7486152243679 -72.0926088209197 636 77 82 78
-23.7486152243679 -39.1392420422526 636 62 59 38
-23.7112746343924 -14.8344525469569 635 167 163 149
-23.673934044417 -13.0821575286205 634 165 157 148
-23.5992528644662 -40.6165629135623 632 42 44 26
-23.5619122744908 -9.57874937188052 631 168 159 148
-23.5619122744908 -7.85799677031325 631 158 147 132
-23.5619122744908 -11.2995019734478 631 156 149 138
-23.4872310945399 -67.8685396070215 629 75 79 71
-23.4498905045645 -69.4732120253402 628 60 64 57
-23.4498905045645 -66.0480689705565 628 63 67 60
-23.4125499145891 -42.0050738488748 627 78 81 69
-23.3752093246136 -64.1306073239189 626 74 78 71
-23.3378687346382 -62.3237718110796 625 78 84 77
-23.3378687346382 -58.9149909046468 625 68 74 67
-23.3378687346382 -60.6193813578632 625 66 72 65
-23.3005281446628 -50.3124097767432 624 72 76 69
-23.3005281446628 -52.0140732052344 624 55 59 52
-23.3005281446628 -53.7157366337257 624 72 76 69
-23.3005281446628 -55.4174000622169 624 73 77 70
-23.3005281446628 -57.1190634907082 624 84 88 81
-23.225846964712 -43.3663145369359 622 66 68 58
-23.1885063747365 -48.3770408369622 621 82 86 79
-23.1138251947857 -46.5332088579036 619 62 66 59
-23.0764846048103 -44.7727327653918 618 75 77 67
-22.5680445431793 -75.6842794780903 652 178 182 182
-22.4988174126787 -4.54947625779105 650 86 82 72
-22.2911360211771 -27.3381320912588 644 115 111 86
-22.2565224559268 -25.5422046773201 643 103 101 77
-22.1872953254262 -23.7147348466123 641 109 108 84
-22.1872953254262 -28.9588033930686 641 117 111 84
-22.1872953254262 -30.7068262418873 641 120 114 87
-22.152681760176 -18.4418509081122 640 82 80 60
-22.1180681949257 -16.6704667166998 639 61 57 40
-22.1180681949257 -21.8981731148052 639 110 109 87
-22.1180681949257 -20.1556043154367 639 105 103 83
-22.0488410644251 -32.2523227313256 637 122 117 87
-22.0142274991749 -14.8578138895505 636 125 121 105
-21.9796139339246 -33.8827202521033 635 121 112 79
-21.9796139339246 -13.102791846489 635 151 144 131
-21.9796139339246 -6.17614904461758 635 129 121 105
-21.9796139339246 -71.9792556623962 635 73 78 74
-21.9450003686743 -11.3532238528778 634 155 148 137
-21.910386803424 -35.5022096739804 633 103 92 61
-21.8757732381738 -37.1696036609774 632 76 68 43
-21.8757732381738 -9.59392964029871 632 165 158 147
-21.8411596729235 -7.85799677031325 631 167 159 143
-21.8065461076732 -38.7700039097785 630 78 73 53
-21.7719325424229 -69.5838381591385 629 63 67 59
-21.7373189771727 -67.7606404979483 628 82 86 78
-21.7027054119224 -40.2952293462081 627 75 76 64
-21.7027054119224 -65.9428968862085 627 74 78 70
-21.6680918466721 -59.0092548900943 626 72 78 71
-21.6680918466721 -60.7163723680358 626 66 72 65
-21.6680918466721 -62.4234898459774 626 72 78 71
-21.6334782814218 -57.2106004514304 625 68 72 65
-21.6334782814218 -55.5062099982141 625 67 71 64
-21.6334782814218 -64.028162264296 625 69 75 68
-21.5988647161716 -50.3124097767432 624 71 74 70
-21.5988647161716 -53.7157366337257 624 67 70 66
-21.5988647161716 -41.8040926342869 624 67 71 63
-21.5642511509213 -51.9307173186876 623 62 65 61
-21.529637585671 -43.3663145369359 622 66 70 62
-21.529637585671 -48.4549426740588 622 78 82 75
-21.4257968899202 -46.5332088579036 619 57 63 56
-21.3565697594196 -44.7002849777456 617 44 50 43
-20.566818638708 -74.8717181953501 645 177 182 179
-20.5030455576577 -4.50048189809177 643 93 89 79
-20.4392724766075 -23.7147348466123 641 86 84 59
-20.4073859360824 -18.4418509081122 640 65 62 41
-20.4073859360824 -20.1871467322058 640 90 87 66
-20.4073859360824 -25.4230342044866 640 104 101 73
-20.4073859360824 -27.1683300285802 640 101 96 66
-20.4073859360824 -16.6965550840186 640 58 53 33
-20.3754993955572 -21.8981731148052 639 103 102 78
-20.3754993955572 -30.6110171116474 639 122 115 84
-20.3436128550321 -28.8232707718842 638 118 111 81
-20.311726314507 -14.8811752321441 637 109 103 86
-20.2798397739818 -13.1234261643575 636 119 113 97
-20.2479532334567 -32.1510595516355 635 124 115 82
-20.2160666929316 -11.3532238528778 634 157 150 137
-20.2160666929316 -33.8293616375331 634 118 107 74
-20.1841801524065 -6.15669660668178 633 155 147 131
-20.1522936118813 -9.59392964029871 632 170 161 148
-20.1522936118813 -71.6391961868258 632 86 90 83
-20.1204070713562 -35.3900383953896 631 97 85 52
-20.0885205308311 -7.8455435266202 630 162 154 138
-20.0885205308311 -37.0519783329364 630 91 78 54
-20.0247474497808 -67.7606404979483 628 80 84 76
-20.003427838788 -2.93070828907993 686 165 162 156
-19.9928609092557 -38.5853848435414 627 101 94 74
-19.9928609092557 -69.3625858915418 627 42 46 38
-19.9609743687306 -59.0092548900943 626 63 69 62
-19.9609743687306 -65.8377248018604 626 81 85 78
-19.9290878282054 -50.3930386385649 625 71 77 70
-19.9290878282054 -55.5062099982141 625 75 79 72
-19.9290878282054 -60.6193813578632 625 65 71 64
-19.9290878282054 -62.3237718110796 625 70 76 69
-19.9290878282054 -64.028162264296 625 68 74 67
-19.9290878282054 -57.2106004514304 625 75 79 72
-19.8972012876803 -48.6107463482519 624 86 92 85
-19.8972012876803 -53.7157366337257 624 77 81 74
-19.8653147471552 -51.9307173186876 623 65 71 64
-19.8653147471552 -41.7370988960909 623 54 58 51
-19.8653147471552 -43.436035299857 623 51 57 50
-19.8653147471552 -40.0381624923248 623 76 78 70
-19.83342820663 -46.7587332950178 622 56 62 55
-19.7377685850547 -44.8451805530381 619 64 70 63
-18.7204091435887 -74.5234776456043 642 122 125 121
-18.7204091435887 -16.7487318186562 642 55 48 27
-18.6912496277888 -23.7147348466123 641 72 70 45
-18.6620901119888 -18.4418509081122 640 62 58 34
-18.6620901119888 -21.9324425562994 640 86 86 60
-18.6620901119888 -20.1871467322058 640 79 77 53
-18.6329305961888 -25.3833107135421 639 108 105 77
-18.6329305961888 -4.47248512112074 639 106 101 90
-18.6037710803888 -14.9045365747378 638 85 76 55
-18.6037710803888 -30.5631125465274 638 121 112 79
-18.6037710803888 -27.0834289972409 638 103 98 68
-18.5746115645888 -28.7780932314893 637 112 105 74
-18.5454520487888 -13.1234261643575 636 113 103 84
-18.5162925329889 -11.3711311460212 635 145 135 118
-18.5162925329889 -32.1510595516355 635 114 104 67
-18.4871330171889 -33.8293616375331 634 104 93 56
-18.4579735013889 -9.60910990871691 633 177 169 153
-18.4579735013889 -6.15669660668178 633 164 154 137
-18.3996544697889 -7.85799677031325 631 172 164 148
-18.3996544697889 -35.3900383953896 631 94 80 46
-18.3704949539889 -71.4124898697789 630 103 107 100
-18.341335438189 -36.9931656689158 629 106 93 69
-18.312175922389 -67.7606404979483 628 88 92 85
-18.283016406589 -69.3625858915418 627 50 54 47
-18.283016406589 -50.5542963622083 627 62 68 61
-18.253856890789 -65.8377248018604 626 72 76 69
-18.253856890789 -52.1807849783281 626 69 75 68
-18.253856890789 -59.0092548900943 626 77 83 76
-18.224697374989 -48.6886481853485 625 72 78 71
-18.224697374989 -55.5062099982141 625 85 89 82
-18.224697374989 -57.2106004514304 625 84 88 81
-18.1955378591891 -63.9257172046732 624 69 75 68
-18.1955378591891 -62.2240537761819 624 72 78 71
-18.1955378591891 -38.4007657773044 624 80 73 53
-18.1955378591891 -60.5223903476907 624 69 73 66
-18.1955378591891 -53.7157366337257 624 90 94 87
-18.1663783433891 -46.8339081073892 623 53 59 52
-18.1663783433891 -43.436035299857 623 68 74 67
-18.1372188275891 -41.670105157895 622 60 64 57
-18.1372188275891 -39.973895778854 622 82 84 76
-18.1080593117891 -44.9900761283306 621 66 72 65
-17.6569040379906 -2.85380923776297 668 143 138 132
-16.9960917611197 -23.7887277790511 643 69 68 40
-16.9696592700449 -16.7487318186562 642 63 53 26
-16.94322677897 -74.4073974623557 641 145 148 144
-16.94322677897 -18.4706663001561 641 65 59 32
-16.94322677897 -20.2186891489749 641 80 75 45
-16.94322677897 -21.9667119977936 641 71 70 40
-16.9167942878952 -25.4230342044866 640 104 101 71
-16.8903617968203 -27.1258795129105 639 113 108 78
-16.8639293057455 -4.46548592687799 638 107 102 91
-16.8639293057455 -14.9045365747378 638 63 53 28
-16.8374968146707 -28.7780932314893 637 109 103 69
-16.8374968146707 -30.5152079814075 637 113 105 70
-16.7581993414462 -32.1004279617904 634 107 96 59
-16.7581993414462 -13.0821575286205 634 94 83 60
-16.7053343592965 -6.14697038771387 632 145 135 118
-16.7053343592965 -33.7226444083926 632 99 88 53
-16.6789018682217 -9.57874937188052 631 155 145 128
-16.6789018682217 -11.2995019734478 631 125 113 96
-16.6524693771468 -7.8455435266202 630 167 157 140
-16.626036886072 -35.2778671167989 629 91 77 44
-16.5996043949971 -71.185783552732 628 79 82 78
-16.5731719039223 -50.5542963622083 627 71 76 72
-16.5731719039223 -36.8755403408748 627 99 89 64
-16.5731719039223 -69.3625858915418 627 45 49 42
-16.5467394128475 -67.544842279802 626 79 83 75
-16.5467394128475 -52.1807849783281 626 97 103 96
-16.5467394128475 -59.0092548900943 626 74 80 73
-16.5467394128475 -48.766550022445 626 66 72 65
-16.5467394128475 -65.8377248018604 626 77 81 74
-16.5203069217726 -60.6193813578632 625 83 87 80
-16.4938744306978 -57.1190634907082 624 82 86 79
-16.4938744306978 -62.2240537761819 624 69 75 68
-16.4938744306978 -46.9090829197607 624 67 72 68
-16.4938744306978 -55.4174000622169 624 66 72 65
-16.4938744306978 -63.9257172046732 624 62 68 61
-16.467441939623 -38.3392260885587 623 84 78 61
-16.467441939623 -53.6296537224537 623 78 84 77
-16.4410094485481 -39.973895778854 622 71 73 65
-16.4410094485481 -41.670105157895 622 67 71 64
-16.4410094485481 -43.3663145369359 622 54 60 53
-16.4410094485481 -45.0625239159769 622 69 75 68
-15.598196858096 -2.81108754258688 658 177 172 165
-15.29002579555 -74.8717181953501 645 160 163 159
-15.218909396501 -23.7517313128317 642 62 59 29
-15.218909396501 -20.2502315657439 642 94 89 59
-15.1952039301513 -25.4627576954311 641 84 81 51
-15.1952039301513 -27.2107805442498 641 90 87 57
-15.1952039301513 -21.9667119977936 641 70 67 37
-15.1714984638016 -16.6965550840186 640 80 70 43
-15.1714984638016 -18.4418509081122 640 81 74 44
-15.1003820647525 -28.7780932314893 637 106 99 68
-15.1003820647525 -13.144060482226 637 88 78 53
-15.1003820647525 -14.8811752321441 637 73 63 36
-15.0766765984028 -4.45148753839248 636 113 107 91
-15.0766765984028 -30.4673034162875 636 106 97 64
-15.0292656657035 -9.6242901771351 634 148 134 115
-15.0292656657035 -32.1004279617904 634 97 86 51
-15.0292656657035 -11.3532238528778 634 115 101 81
-15.0055601993538 -33.7760030229628 633 88 74 40
-14.9818547330041 -6.14697038771387 632 140 129 108
-14.9581492666544 -71.5258430283024 631 70 73 69
-14.9581492666544 -7.85799677031325 631 163 151 132
-14.910738333955 -35.2778671167989 629 94 79 49
-14.8870328676053 -59.1977828609892 628 75 78 74
-14.8633274012556 -65.9428968862085 627 80 86 79
-14.8633274012556 -69.3625858915418 627 28 34 27
-14.8396219349059 -36.8167276768542 626 114 103 82
-14.8396219349059 -43.6451975886204 626 57 65 58
-14.8396219349059 -52.1807849783281 626 58 64 57
-14.8396219349059 -57.3021374121527 626 85 91 84
-14.8396219349059 -67.544842279802 626 57 63 56
-14.8396219349059 -60.7163723680358 626 74 80 73
-14.8159164685562 -50.3930386385649 625 53 58 54
-14.8159164685562 -45.2798672789157 625 59 65 58
-14.8159164685562 -55.5062099982141 625 76 82 75
-14.8159164685562 -62.3237718110796 625 65 71 64
-14.8159164685562 -64.028162264296 625 63 69 62
-14.7922110022066 -41.8040926342869 624 71 77 70
-14.7685055358569 -48.5328445111554 623 64 70 63
-14.7685055358569 -53.6296537224537 623 64 70 63
-14.7448000695072 -38.277686399813 622 80 76 59
-14.7210946031575 -39.9096290653832 621 71 73 65
-14.7210946031575 -46.6835584826464 621 69 74 70
-13.6779439392025 -2.78545452548122 652 152 148 138
-13.4891379645816 -20.281773982513 643 96 91 61
-13.4891379645816 -23.7887277790511 643 62 59 31
-13.4891379645816 -74.6395578288529 643 164 167 164
-13.4681595229571 -27.2532310599195 642 82 79 51
-13.4681595229571 -18.4994816922001 642 85 78 48
-13.4681595229571 -22.0009814392878 642 65 62 34
-13.4471810813325 -16.7226434513374 641 88 79 49
-13.4471810813325 -25.4627576954311 641 47 43 19
-13.426202639708 -14.951259259925 640 71 59 30
-13.3842457564589 -13.1646948000945 638 83 71 42
-13.3632673148344 -4.45848673263523 637 105 101 76
-13.3632673148344 -28.7780932314893 637 85 82 52
-13.3422888732098 -9.65465071397149 636 137 124 101
-13.3422888732098 -11.3890384391645 636 99 86 63
-13.3213104315853 -30.4193988511676 635 93 88 58
-13.3003319899607 -7.89535650139239 634 153 141 122
-13.3003319899607 -32.1004279617904 634 98 87 52
-13.3003319899607 -6.16642282564968 634 150 139 118
-13.2583751067117 -33.7226444083926 632 87 73 39
-13.195439781838 -35.2778671167989 629 82 67 37
-13.195439781838 -71.2991367112555 629 80 83 79
-13.1534828985889 -62.5232078808751 627 61 67 60
-13.1534828985889 -64.2330523835418 627 52 58 51
-13.1325044569644 -65.8377248018604 626 72 78 71
-13.1325044569644 -60.7163723680358 626 65 71 64
-13.1325044569644 -59.0092548900943 626 75 80 76
-13.1325044569644 -69.2519597577435 626 50 54 47
-13.1325044569644 -43.6451975886204 626 75 83 76
-13.1115260153398 -67.4369431707288 625 77 83 76
-13.1115260153398 -55.5062099982141 625 65 71 64
-13.1115260153398 -57.2106004514304 625 76 82 75
-13.1115260153398 -36.7579150128337 625 70 61 40
-13.0905475737153 -53.7157366337257 624 60 66 59
-13.0905475737153 -41.8040926342869 624 74 80 73
-13.0905475737153 -45.2074194912694 624 67 75 68
-13.0905475737153 -52.0140732052344 624 62 68 61
-13.0695691320908 -50.2317809149215 623 54 62 55
-13.0485906904662 -38.277686399813 622 63 60 44
-13.0485906904662 -48.4549426740588 622 76 84 77
-13.0276122488417 -39.9096290653832 621 63 67 59
-13.0276122488417 -46.6835584826464 621 72 80 73
-11.8269181508096 -2.76836584741078 648 103 99 89
-11.7174096494132 -20.2502315657439 642 87 80 50
-11.7174096494132 -13.2472320715684 642 85 73 44
-11.7174096494132 -27.2532310599195 642 68 66 42
-11.6991582325138 -14.9746206025187 641 67 55 26
-11.6991582325138 -16.7226434513374 641 90 81 51
-11.6991582325138 -18.4706663001561 641 86 77 47
-11.6991582325138 -23.7147348466123 641 46 42 17
-11.6809068156144 -74.2913172791071 640 140 143 140
-11.6809068156144 -21.9324425562994 640 60 54 27
-11.6809068156144 -25.4230342044866 640 46 44 20
-11.662655398715 -11.4427603185945 639 95 82 59
-11.6261525649162 -9.66983098238969 637 127 114 91
-11.6079011480168 -28.7329156910945 636 69 67 42
-11.5896497311174 -4.44448834414972 635 121 115 99
-11.571398314218 -6.16642282564968 634 154 142 123
-11.571398314218 -30.3714942860476 634 70 67 37
-11.5531468973186 -7.88290325769934 633 144 134 117
-11.5531468973186 -33.7760030229628 633 88 74 41
-11.5348954804192 -31.9991647821002 632 91 80 49
-11.5166440635198 -71.5258430283024 631 78 81 77
-11.480141229721 -35.2778671167989 629 81 68 39
-11.4618898128216 -69.4732120253402 628 56 62 55
-11.4436383959222 -67.6527413888752 627 64 72 65
-11.4436383959222 -64.2330523835418 627 60 68 61
-11.4436383959222 -60.8133633782084 627 73 79 72
-11.4436383959222 -62.5232078808751 627 89 97 90
-11.4436383959222 -36.8755403408748 627 63 54 33
-11.4253869790228 -65.8377248018604 626 69 77 69
-11.4071355621235 -58.9149909046468 625 90 95 91
-11.4071355621235 -41.8710863724829 625 70 78 71
-11.3888841452241 -57.1190634907082 624 76 84 77
-11.3888841452241 -43.5057560627782 624 76 84 77
-11.3888841452241 -45.2074194912694 624 67 75 68
-11.3706327283247 -38.3392260885587 623 52 49 33
-11.3706327283247 -53.6296537224537 623 95 103 96
-11.3706327283247 -55.3285901262198 623 83 91 84
-11.3523813114253 -50.1511520530998 622 45 53 46
-11.3523813114253 -39.973895778854 622 65 69 61
-11.3341298945259 -46.6835584826464 621 63 70 66
-11.3341298945259 -48.3770408369622 621 60 65 61
-11.3341298945259 -51.7640055455939 621 67 75 68
-10.0132329523921 -2.75554933885796 645 79 75 65
-9.96665977586933 -14.9979819451123 642 67 55 26
-9.96665977586933 -16.7487318186562 642 80 71 41
-9.96665977586933 -18.4994816922001 642 81 74 44
-9.95113538369507 -25.4627576954311 641 44 41 20
-9.95113538369507 -13.2265977536999 641 87 75 48
-9.95113538369507 -20.2186891489749 641 91 84 54
-9.95113538369507 -27.2107805442498 641 66 63 42
-9.95113538369507 -23.7147348466123 641 50 44 19
-9.93561099152082 -21.9324425562994 640 72 66 39
-9.90456220717232 -11.4248530254512 638 109 95 75
-9.85798903064957 -9.6394704455533 635 133 119 100
-9.84246463847532 -4.43748914990697 634 127 120 107
-9.84246463847532 -73.5948361796155 634 179 182 178
-9.82694024630107 -28.5973830699101 633 64 62 44
-9.82694024630107 -33.7760030229628 633 87 75 42
-9.81141585412681 -7.87045001400629 632 153 143 126
-9.79589146195256 -6.13724416874597 631 171 161 144
-9.79589146195256 -30.2277805906878 631 84 83 61
-9.76484267760406 -71.2991367112555 629 77 82 78
-9.76484267760406 -31.8472700125649 629 96 87 57
-9.76484267760406 -35.2778671167989 629 83 70 43
-9.73379389325556 -69.3625858915418 627 50 56 49
-9.71826950108131 -60.7163723680358 626 55 63 56
-9.71826950108131 -64.1306073239189 626 52 60 53
-9.71826950108131 -62.4234898459774 626 55 63 56
-9.71826950108131 -67.544842279802 626 50 58 51
-9.70274510890705 -36.7579150128337 625 86 75 54
-9.70274510890705 -65.7325527175124 625 53 61 54
-9.6872207167328 -58.8207269191994 624 63 69 62
-9.6872207167328 -57.1190634907082 624 62 70 63
-9.6872207167328 -55.4174000622169 624 86 94 87
-9.67169632455855 -53.6296537224537 623 83 91 84
-9.6561719323843 -46.7587332950178 622 71 76 72
-9.64064754021005 -39.9096290653832 621 47 49 39
-9.64064754021005 -41.603111419699 621 50 56 49
-9.64064754021005 -44.9900761283306 621 68 76 69
-9.64064754021005 -48.3770408369622 621 62 67 63
-9.64064754021005 -38.2161467110674 621 53 47 30
-9.6251231480358 -43.2268730110937 620 76 84 77
-9.6251231480358 -49.9898943294563 620 74 79 75
-9.6251231480358 -51.680649659047 620 67 74 70
-9.13732035866101 -96.5109204157847 714 153 157 159
-8.65102039559502 -1.04451787970499 676 193 195 195
-8.38227567916381 -77.8187212228069 655 169 173 173
-8.27989673957097 -80.3970335533562 647 155 158 162
-8.21590990232544 -16.7487318186562 642 63 56 26
-8.20311253487634 -2.73846066078752 641 69 65 55
-8.20311253487634 -13.2265977536999 641 85 72 48
-8.20311253487634 -14.9746206025187 641 61 51 24
-8.20311253487634 -18.4706663001561 641 76 67 37
-8.19031516742723 -27.1683300285802 640 72 70 52
-8.19031516742723 -25.4230342044866 640 43 40 20
-8.19031516742723 -23.677738380393 640 53 47 22
-8.19031516742723 -21.9324425562994 640 71 65 40
-8.19031516742723 -20.1871467322058 640 85 78 48
-8.16472043252903 -11.4248530254512 638 90 76 56
-8.12632833018171 -73.7109163628641 635 175 178 175
-8.1135309627326 -33.8293616375331 634 87 76 43
-8.1135309627326 -9.6242901771351 634 144 132 115
-8.07513886038529 -71.5258430283024 631 96 101 97
-8.07513886038529 -28.5070279891205 631 91 89 71
-8.07513886038529 -35.3900383953896 631 85 72 43
-8.07513886038529 -4.4164915671787 631 145 138 127
-8.06234149293618 -7.8455435266202 630 154 142 132
-8.06234149293618 -30.1798760255679 630 112 110 90
-8.04954412548708 -6.11779173081017 629 183 174 163
-8.04954412548708 -69.5838381591385 629 51 57 50
-8.04954412548708 -31.8472700125649 629 97 90 60
-8.01115202313976 -36.8167276768542 626 108 95 72
-8.01115202313976 -67.544842279802 626 65 73 66
-8.01115202313976 -57.3021374121527 626 35 42 38
-7.99835465569066 -60.6193813578632 625 45 51 44
-7.99835465569066 -53.8018195449977 625 70 77 73
-7.99835465569066 -55.5062099982141 625 52 59 55
-7.99835465569066 -58.9149909046468 625 48 54 47
-7.98555728824155 -65.6273806331644 624 70 78 71
-7.98555728824155 -62.2240537761819 624 56 64 57
-7.98555728824155 -63.9257172046732 624 62 70 63
-7.97275992079245 -46.8339081073892 623 65 73 66
-7.95996255334334 -41.670105157895 622 67 73 65
-7.95996255334334 -45.0625239159769 622 64 72 65
-7.94716518589424 -48.3770408369622 621 55 60 56
-7.94716518589424 -50.070523191278 621 74 79 75
-7.94716518589424 -51.7640055455939 621 75 82 78
-7.93436781844513 -39.8453623519124 620 59 61 51
-7.93436781844513 -43.2268730110937 620 66 74 67
-7.92157045099603 -38.093067333576 619 50 42 25
-7.03916956404722 -84.9524286565292 699 175 179 181
-6.70684825415657 -82.757997444413 666 153 156 160
-6.63635585508886 -1.01825041823312 659 209 209 207
-6.53565242784927 -77.1058779749644 649 148 152 154
-6.4550896860576 -25.4627576954311 641 40 37 17
-6.4550896860576 -16.7226434513374 641 77 68 38
-6.4550896860576 -14.9746206025187 641 59 49 22
-6.4550896860576 -13.2265977536999 641 90 77 53
-6.4550896860576 -18.4706663001561 641 75 66 36
-6.43494900060969 -21.8981731148052 639 75 69 44
-6.43494900060969 -23.6407419141736 639 64 57 34
-6.43494900060969 -20.1556043154367 639 76 67 37
-6.43494900060969 -27.1258795129105 639 80 78 60
-6.43494900060969 -2.7299163217523 639 69 65 55
-6.43494900060969 -11.4427603185945 639 81 67 48
-6.39466762971385 -9.6394704455533 635 130 118 101
-6.39466762971385 -73.7109163628641 635 131 134 131
-6.38459728698989 -33.8293616375331 634 88 77 44
-6.37452694426593 -35.5022096739804 633 83 70 41
-6.35438625881801 -28.5070279891205 631 91 89 71
-6.35438625881801 -4.4164915671787 631 136 128 119
-6.34431591609406 -31.89790160241 630 97 92 62
-6.34431591609406 -7.8455435266202 630 142 132 123
-6.34431591609406 -71.4124898697789 630 80 86 79
-6.3342455733701 -30.1319714604479 629 117 115 95
-6.32417523064614 -6.10806551184227 628 149 141 134
-6.32417523064614 -57.4852113335973 628 70 77 73
-6.32417523064614 -69.4732120253402 628 50 56 49
-6.31410488792218 -36.8755403408748 627 92 79 56
-6.30403454519822 -67.544842279802 626 65 71 64
-6.30403454519822 -55.5950199342112 626 68 75 71
-6.30403454519822 -59.0092548900943 626 69 75 68
-6.30403454519822 -65.8377248018604 626 62 70 63
-6.29396420247426 -53.8018195449977 625 71 79 72
-6.29396420247426 -60.6193813578632 625 55 61 54
-6.29396420247426 -62.3237718110796 625 55 61 54
-6.29396420247426 -64.028162264296 625 49 55 48
-6.26375317430239 -41.670105157895 622 69 75 68
-6.26375317430239 -43.3663145369359 622 61 69 62
-6.26375317430239 -45.0625239159769 622 70 78 71
-6.26375317430239 -46.7587332950178 622 61 69 62
-6.25368283157843 -38.2161467110674 621 63 53 36
-6.25368283157843 -50.070523191278 621 73 78 74
-6.25368283157843 -51.7640055455939 621 64 71 67
-6.24361248885447 -39.8453623519124 620 69 69 59
-6.24361248885447 -48.2991389998657 620 68 74 67
-6.23354214613051 -78.6057466503485 619 155 156 160
-5.00814287519018 -82.8863467006479 682 162 166 168
-4.75112674523174 -0.99970868072356 647 94 89 82
-4.73644010923412 -76.6306491430694 645 168 172 174
-4.71441015523768 -14.9979819451123 642 66 56 31
-4.71441015523768 -16.7487318186562 642 73 63 36
-4.70706683723887 -13.2265977536999 641 88 75 52
-4.70706683723887 -18.4706663001561 641 76 67 37
-4.69972351924006 -20.1871467322058 640 82 73 43
-4.69972351924006 -21.9324425562994 640 69 63 38
-4.69238020124124 -23.6407419141736 639 52 45 22
-4.69238020124124 -25.3833107135421 639 38 35 15
-4.69238020124124 -27.1258795129105 639 83 81 63
-4.68503688324243 -11.4248530254512 638 82 68 49
-4.66300692924599 -2.71282764368186 635 81 76 69
-4.66300692924599 -9.6394704455533 635 109 97 80
-4.65566361124718 -73.5948361796155 634 121 124 120
-4.65566361124718 -28.6425606103049 634 97 95 77
-4.65566361124718 -33.8293616375331 634 94 83 52
-4.64832029324837 -35.5022096739804 633 82 69 40
-4.64097697524955 -30.2756851558078 632 117 115 95
-4.63363365725074 -7.85799677031325 631 166 156 147
-4.63363365725074 -31.9485331922551 631 92 87 57
-4.63363365725074 -37.1107909969569 631 85 65 41
-4.62629033925193 -69.6944642929368 630 47 53 46
-4.62629033925193 -71.4124898697789 630 57 63 56
-4.62629033925193 -4.40949237293594 630 127 121 114
-4.61894702125312 -6.11779173081017 629 153 144 139
-4.6116037032543 -57.4852113335973 628 63 69 62
-4.6116037032543 -67.7606404979483 628 57 63 56
-4.6116037032543 -66.0480689705565 628 53 59 52
-4.60426038525549 -64.2330523835418 627 49 55 48
-4.59691706725668 -59.0092548900943 626 44 50 43
-4.59691706725668 -60.7163723680358 626 50 56 49
-4.59691706725668 -62.4234898459774 626 51 57 50
-4.59691706725668 -38.5238451547958 626 64 54 37
-4.58957374925787 -55.5062099982141 625 60 65 61
-4.58957374925787 -43.5754768256993 625 53 61 54
-4.58223043125905 -40.1024292057957 624 51 49 38
-4.58223043125905 -53.7157366337257 624 86 93 89
-4.57488711326024 -41.7370988960909 623 57 61 53
-4.57488711326024 -45.1349717036231 623 64 72 65
-4.57488711326024 -46.8339081073892 623 63 69 62
-4.56754379526143 -50.1511520530998 622 72 77 73
-4.56020047726262 -48.3770408369622 621 73 78 74
-4.56020047726262 -51.7640055455939 621 77 82 78
-3.18524235882978 -85.74026762259 690 168 171 175
-3.16216089246145 -92.5910090823705 685 163 164 168
-3.09291649335646 -81.4279359082612 670 179 183 185
-3.08368390680912 -84.8281724756588 668 169 170 174
-3.06521873371446 0.784768275301668 664 160 163 160
-2.97289286824113 -16.8009085532937 644 66 58 31
-2.96827657496746 -15.0213432877059 643 68 58 33
-2.96827657496746 -18.528297084244 643 76 67 37
-2.9636602816938 -20.2502315657439 642 77 69 42
-2.95904398842013 -13.2265977536999 641 82 71 48
-2.95442769514647 -0.988892667176319 640 72 68 57
-2.95442769514647 -21.9324425562994 640 76 70 45
-2.95442769514647 -23.677738380393 640 62 55 32
-2.95442769514647 -25.4230342044866 640 40 37 17
-2.9498114018728 -11.4427603185945 639 84 70 50
-2.9498114018728 -27.1258795129105 639 59 57 39
-2.94519510859913 -75.7989986872532 638 138 142 142
-2.9359625220518 -9.65465071397149 636 101 89 72
-2.93134622877813 -28.6877381506997 635 85 83 65
-2.9221136422308 -35.5022096739804 633 86 73 44
-2.9221136422308 -33.7760030229628 633 96 87 57
-2.91749734895713 -7.87045001400629 632 159 150 139
-2.91749734895713 -30.2756851558078 632 106 104 84
-2.91749734895713 -37.1696036609774 632 80 67 44
-2.91749734895713 -2.70001113512904 632 105 100 93
-2.91288105568347 -73.2465956298696 631 143 146 143
-2.91288105568347 -31.9485331922551 631 101 96 66
-2.90364846913614 -6.11779173081017 629 174 165 160
-2.90364846913614 -4.40249317869319 629 185 179 172
-2.90364846913614 -69.5838381591385 629 71 75 68
-2.89903217586247 -71.185783552732 628 56 60 53
-2.89903217586247 -67.7606404979483 628 57 61 53
-2.89903217586247 -66.0480689705565 628 56 62 55
-2.89903217586247 -64.3354974431647 628 45 51 44
-2.89903217586247 -62.6229259157728 628 46 52 45
-2.89903217586247 -38.6469245322871 628 76 64 47
-2.8944158825888 -59.1035188755417 627 52 58 51
-2.8944158825888 -60.8133633782084 627 37 43 36
-2.88979958931514 -57.3021374121527 626 40 46 39
-2.88979958931514 -43.6451975886204 626 52 60 53
-2.88518329604147 -40.1666959192665 625 62 60 49
-2.8805670027678 -46.9090829197607 624 52 58 51
-2.8805670027678 -45.2074194912694 624 88 96 89
-2.8805670027678 -41.8040926342869 624 47 51 43
-2.87595070949414 -48.5328445111554 623 65 71 64
-2.87595070949414 -55.3285901262198 623 46 51 47
-2.87133441622047 -50.1511520530998 622 58 63 59
-2.8667181229468 -51.7640055455939 621 62 67 63
-2.8667181229468 -53.4574878999097 621 49 54 50
-1.35838408638596 -95.2260364200277 719 134 135 139
-1.35838408638596 -93.2653056426476 719 162 163 167
-1.35082701219188 -96.6460897721093 715 0 0 0
-1.32626652106112 -96.8032594969418 702 143 144 148
-1.29037041863924 -86.7329967078966 683 0 0 0
-1.28092407589664 -84.2491325335015 678 205 208 212
-1.267699196057 -81.5494701409601 671 141 145 147
-1.23747089928068 0.774131355907519 655 149 150 144
-1.21668894524696 -16.8009085532937 644 58 50 23
-1.21479967669844 -15.0213432877059 643 74 63 40
-1.21479967669844 -18.528297084244 643 69 60 30
-1.21479967669844 -20.281773982513 643 82 72 45
-1.21291040814992 -23.7517313128317 642 63 56 33
-1.21291040814992 -13.2472320715684 642 80 69 46
-1.2110211396014 -21.9667119977936 641 76 68 43
-1.20724260250436 -11.4427603185945 639 85 71 51
-1.20724260250436 -25.3833107135421 639 38 33 12
-1.20535333395584 -75.7989986872532 638 138 138 136
-1.20535333395584 -27.0834289972409 638 45 43 23
-1.20346406540732 -9.66983098238969 637 122 108 89
-1.2015747968588 -0.982712088006467 636 83 79 69
-1.19968552831027 -28.6877381506997 635 88 86 68
-1.19779625976175 -30.3714942860476 634 89 87 67
-1.19779625976175 -7.89535650139239 634 151 139 129
-1.19590699121323 -33.7760030229628 633 92 83 53
-1.19401772266471 -31.9991647821002 632 106 100 73
-1.19212845411619 -35.3900383953896 631 85 73 46
-1.19212845411619 -37.1107909969569 631 65 52 29
-1.19023918556767 -6.12751794977807 630 151 141 132
-1.19023918556767 -2.69146679609382 630 167 162 151
-1.18834991701915 -73.0144352633724 629 164 163 157
-1.18646064847063 -4.39549398445043 628 171 163 154
-1.18457137992211 -38.5853848435414 627 74 68 52
-1.18457137992211 -62.5232078808751 627 48 54 47
-1.18457137992211 -71.0724303942085 627 73 74 68
-1.18457137992211 -69.3625858915418 627 82 86 78
-1.18268211137359 -67.544842279802 626 53 57 49
-1.18268211137359 -43.6451975886204 626 38 46 39
-1.18268211137359 -60.7163723680358 626 53 57 50
-1.18268211137359 -64.1306073239189 626 70 76 69
-1.18268211137359 -65.8377248018604 626 55 61 53
-1.18079284282507 -58.9149909046468 625 52 58 51
-1.18079284282507 -57.2106004514304 625 47 53 46
-1.18079284282507 -41.8710863724829 625 38 40 32
-1.18079284282507 -40.1666959192665 625 60 56 45
-1.17890357427655 -45.2074194912694 624 46 54 47
-1.17890357427655 -50.3124097767432 624 46 52 45
-1.17701430572803 -53.6296537224537 623 71 77 70
-1.17701430572803 -51.9307173186876 623 50 56 49
-1.17701430572803 -55.3285901262198 623 49 55 48
-1.17701430572803 -46.8339081073892 623 56 64 57
-1.17701430572803 -48.5328445111554 623 43 51 44
0.520246585684818 -46.6835584826464 621 74 80 73
0.521084341861444 -45.0625239159769 622 73 81 74
0.52192209803807 -48.5328445111554 623 69 75 68
0.52192209803807 -43.436035299857 623 77 85 78
0.522759854214696 -50.3124097767432 624 79 85 78
0.522759854214696 -52.0140732052344 624 65 71 64
0.522759854214696 -41.8040926342869 624 46 48 38
0.522759854214696 -40.1024292057957 624 56 53 39
0.523597610391322 -53.8018195449977 625 67 73 66
0.523597610391322 -67.4369431707288 625 56 60 52
0.523597610391322 -55.5062099982141 625 45 51 44
0.524435366567949 -38.5238451547958 626 86 80 63
0.524435366567949 -69.2519597577435 626 74 78 70
0.524435366567949 -65.8377248018604 626 46 52 45
0.524435366567949 -64.1306073239189 626 50 56 49
0.524435366567949 -57.3021374121527 626 36 42 35
0.525273122744575 -71.0724303942085 627 73 75 67
0.525273122744575 -60.8133633782084 627 40 46 39
0.525273122744575 -59.1035188755417 627 48 54 47
0.526110878921201 -4.39549398445043 628 164 155 144
0.526110878921201 -62.6229259157728 628 38 44 37
0.527786391274453 -2.69146679609382 630 172 165 154
0.528624147451079 -6.13724416874597 631 135 123 113
0.529461903627705 -37.1696036609774 632 65 52 28
0.531137415980957 -35.5582953132758 634 84 72 45
0.531137415980957 -73.5948361796155 634 147 144 138
0.531975172157583 -7.90780974508544 635 143 130 115
0.531975172157583 -32.1510595516355 635 103 97 70
0.53281292833421 -33.9360788666736 636 92 83 53
0.53281292833421 -30.4673034162875 636 95 94 72
0.533650684510836 -9.66983098238969 637 125 111 91
0.533650684510836 -28.7780932314893 637 89 87 67
0.535326196864088 -11.4427603185945 639 83 70 47
0.535326196864088 -0.987347522383856 639 106 102 88
0.536163953040714 -25.4230342044866 640 40 35 14
0.536163953040714 -27.1683300285802 640 51 48 27
0.53700170921734 -23.7147348466123 641 70 62 37
0.53700170921734 -21.9667119977936 641 73 65 40
0.53700170921734 -13.2265977536999 641 76 65 42
0.537839465393966 -14.9979819451123 642 74 65 42
0.538677221570593 -20.281773982513 643 70 62 35
0.539514977747219 -18.5571124762879 644 68 60 33
0.539514977747219 -16.8009085532937 644 64 56 31
0.542866002453723 -76.9870707669907 648 144 143 139
0.551243564219984 -85.3526719233131 658 179 179 181
0.55208132039661 -87.2794965240588 659 156 156 158
0.552919076573236 -83.8122662184652 660 176 176 178
0.554594588926489 -89.482113886904 662 139 141 143
0.556270101279741 0.784768275301668 664 159 159 151
0.557107857456367 -82.6337361869889 665 174 171 174
0.558783369809619 -81.0633332101645 667 150 150 148
0.571349712459011 -94.0453318759463 682 167 169 171
0.606535471877308 -101.811345781043 724 141 143 145
0.616588545996821 -105.505916848049 736 137 139 139
2.21372894000063 -48.3770408369622 621 82 88 81
2.21372894000063 -46.6835584826464 621 66 72 65
2.2172937209024 -45.0625239159769 622 66 74 66
2.22085850180417 -40.0381624923248 623 48 45 29
2.22085850180417 -50.2317809149215 623 78 84 77
2.22442328270595 -52.0140732052344 624 62 68 61
2.22442328270595 -41.8040926342869 624 50 51 39
2.22442328270595 -43.5057560627782 624 100 108 100
2.22798806360772 -38.4623054660501 625 77 67 48
2.23511762541126 -65.9428968862085 627 55 59 52
2.23511762541126 -59.1035188755417 627 42 48 41
2.23511762541126 -67.6527413888752 627 65 69 61
2.23511762541126 -4.38849479020768 627 113 100 85
2.23511762541126 -69.3625858915418 627 69 71 63
2.23868240631304 -54.0600682788136 628 50 56 49
2.23868240631304 -64.3354974431647 628 57 61 54
2.23868240631304 -62.6229259157728 628 58 62 55
2.23868240631304 -60.910354388381 628 42 48 41
2.23868240631304 -55.7726398062055 628 42 48 41
2.24224718721481 -2.68719462657621 629 170 159 144
2.24224718721481 -71.2991367112555 629 72 74 66
2.24224718721481 -57.5767482943196 629 39 45 38
2.25294152992012 -6.14697038771387 632 137 124 111
2.25294152992012 -37.1696036609774 632 73 60 36
2.26363587262544 -7.90780974508544 635 142 128 111
2.26363587262544 -35.6143809525712 635 84 72 43
2.27076543442899 -73.9430767293613 637 78 75 68
2.27076543442899 -32.2523227313256 637 103 97 70
2.27433021533076 -9.68501125080788 638 115 102 79
2.27433021533076 -34.042796095814 638 86 79 49
2.27789499623253 -0.987347522383856 639 99 95 81
2.27789499623253 -28.868448312279 639 84 82 58
2.2814597771343 -30.6589216767673 640 82 80 55
2.2814597771343 -11.4606676117379 640 76 63 39
2.2814597771343 -13.2059634358314 640 75 62 38
2.2814597771343 -14.951259259925 640 69 60 37
2.2814597771343 -25.4230342044866 640 59 51 26
2.28502455803608 -27.2107805442498 641 61 57 32
2.28858933893785 -16.7487318186562 642 56 49 26
2.29215411983962 -23.7887277790511 643 66 56 31
2.29215411983962 -22.035250880782 643 76 66 41
2.29571890074139 -18.5571124762879 644 73 65 40
2.29928368164317 -20.3448588160512 645 71 63 36
2.31354280525025 -77.1058779749644 649 68 63 56
2.32423714795557 -86.3524002028624 652 147 153 146
2.32780192885734 -84.7040953889414 653 191 194 191
2.33493149066089 -83.1773248077193 655 158 150 151
2.34206105246443 -88.8062671052809 657 153 150 153
2.35275539516975 -82.0124298998687 660 160 154 148
2.3598849569733 -80.45566204667 662 189 184 178
2.36701451877684 -91.5631970170504 664 143 145 145
2.3848384232857 0.790677674965084 669 123 123 113
2.40622710869634 -94.9207988980716 675 178 182 184
2.49891141214242 -100.488651780547 701 190 192 192
3.91350309994336 -46.7587332950178 622 41 47 40
3.91350309994336 -48.4549426740588 622 54 60 53
3.91979490557028 -45.1349717036231 623 46 52 45
3.91979490557028 -50.2317809149215 623 60 66 59
3.91979490557028 -43.436035299857 623 82 88 80
3.9260867111972 -41.8040926342869 624 54 52 41
3.9260867111972 -52.0140732052344 624 67 73 66
3.93237851682411 -40.1666959192665 625 58 54 37
3.93867032245103 -53.8879024562697 626 69 75 68
3.94496212807795 -2.67865028754099 627 167 153 136
3.94496212807795 -4.38849479020768 627 110 94 78
3.94496212807795 -55.6838298702083 627 65 71 64
3.95125393370487 -38.6469245322871 628 91 81 62
3.95125393370487 -57.4852113335973 628 67 71 63
3.95125393370487 -59.1977828609892 628 74 79 68
3.95754573933179 -61.0073453985536 629 69 74 63
3.95754573933179 -62.7226439506705 629 72 72 62
3.95754573933179 -64.4379425027875 629 64 68 60
3.95754573933179 -66.1532410549045 629 63 67 59
3.96383754495871 -67.9764387160947 630 59 64 53
3.97642115621254 -69.9157165605334 632 77 79 69
3.97642115621254 -6.14697038771387 632 130 115 96
3.98271296183946 -71.7525493453493 633 98 98 88
3.98271296183946 -37.228416324998 633 72 60 33
4.00158837872022 -7.92026298877849 636 141 127 104
4.00158837872022 -35.6704665918666 636 83 71 42
4.01417198997406 -32.3029543211707 638 105 100 70
4.02046379560097 -34.0961547103843 639 90 83 53
4.02046379560097 -28.868448312279 639 81 77 52
4.02046379560097 -9.70019151922607 639 125 111 87
4.02046379560097 -0.987347522383856 639 115 107 91
4.02675560122789 -13.2059634358314 640 76 63 39
4.02675560122789 -74.2913172791071 640 87 84 68
4.02675560122789 -30.6589216767673 640 87 83 58
4.02675560122789 -14.951259259925 640 72 63 40
4.03304740685481 -27.2107805442498 641 77 71 46
4.03304740685481 -25.4627576954311 641 71 63 38
4.03304740685481 -11.4785749048812 641 78 65 38
4.04563101810865 -16.774820185975 643 42 35 12
4.05192282373557 -23.8257242452704 644 74 64 39
4.05192282373557 -22.0695203222763 644 77 67 40
4.05821462936249 -18.5859278683318 645 71 65 40
4.06450643498941 -20.3764012328202 646 69 61 34
4.095965463124 -93.3211302555437 651 164 164 164
4.095965463124 -77.3434923909119 651 80 77 63
4.10225726875092 -95.2425008068391 652 166 170 170
4.11484088000475 -86.6172848660614 654 93 84 71
4.11484088000475 -91.9677073767983 654 180 178 178
4.12113268563167 -90.3221295876024 655 152 154 154
4.12113268563167 -84.9635260026901 655 73 58 45
4.12113268563167 -88.5359283926316 655 189 189 189
4.14000810251243 -83.5582896541669 658 63 55 46
4.1651753250201 -80.45566204667 662 73 69 59
4.1651753250201 -82.2609524147168 662 61 54 43
4.20292615878161 0.789495795032401 668 89 87 76
5.62775013968845 -52.0140732052344 624 68 74 66
5.63676897004051 -50.3930386385649 625 71 77 69
5.63676897004051 -43.5754768256993 625 52 58 51
5.63676897004051 -45.2798672789157 625 41 47 40
5.63676897004051 -48.6886481853485 625 88 94 87
5.63676897004051 -41.8710863724829 625 53 51 40
5.64578780039258 -47.0594325445035 626 62 68 61
5.64578780039258 -53.8879024562697 626 58 64 56
5.64578780039258 -2.67437811802338 626 159 145 126
5.65480663074464 -4.38849479020768 627 118 102 79
5.6638254610967 -40.359496059679 628 55 51 34
5.6638254610967 -55.7726398062055 628 57 61 53
5.67284429144877 -38.7084642210328 629 76 66 47
5.68186312180084 -62.8223619855683 630 71 72 58
5.68186312180084 -59.386310831884 630 70 73 61
5.68186312180084 -57.6682852550419 630 69 74 63
5.68186312180084 -92.0287967918844 630 160 163 159
5.6908819521529 -66.3635852236006 631 73 74 60
5.6908819521529 -64.6428326220333 631 75 76 62
5.6908819521529 -61.2013274188987 631 74 77 65
5.69990078250496 -94.0444313286273 632 173 175 175
5.69990078250496 -37.1696036609774 632 81 69 40
5.69990078250496 -6.14697038771387 632 138 122 99
5.69990078250496 -90.5974720760425 632 167 166 162
5.71793844320909 -35.5582953132758 634 88 76 47
5.71793844320909 -68.4080351523873 634 40 41 27
5.72695727356116 -7.90780974508544 635 120 106 82
5.72695727356116 -0.981166943214004 635 161 149 132
5.72695727356116 -70.2475949619283 635 76 77 65
5.73597610391322 -89.4364860728497 636 107 103 93
5.73597610391322 -72.0926088209197 636 144 143 129
5.74499493426529 -33.9894374812438 637 91 84 54
5.75401376461735 -9.68501125080788 638 119 106 79
5.75401376461735 -32.3029543211707 638 104 97 67
5.76303259496942 -74.1752370958585 639 144 142 124
5.77205142532148 -13.2059634358314 640 79 67 40
5.77205142532148 -11.4606676117379 640 79 67 40
5.77205142532148 -88.2536838718558 640 115 110 80
5.78107025567355 -28.9588033930686 641 92 86 59
5.78107025567355 -14.9746206025187 641 73 65 40
5.78107025567355 -30.7068262418873 641 97 94 66
5.79008908602561 -27.2532310599195 642 85 77 50
5.79008908602561 -25.5024811863756 642 70 62 35
5.80812674672974 -87.0490654730607 644 109 98 67
5.80812674672974 -22.0695203222763 644 65 55 28
5.80812674672974 -16.8009085532937 644 38 31 8
5.80812674672974 -76.5118419350957 644 139 134 113
5.81714557708181 -23.8627207114898 645 68 58 31
5.81714557708181 -18.5859278683318 645 44 38 13
5.82616440743387 -85.5577462132655 646 76 65 32
5.83518323778594 -20.4079436495893 647 61 53 26
5.85322089849007 -84.1852341614441 649 84 64 46
5.86223972884213 -78.9972512542832 650 81 74 54
5.86223972884213 -82.5423833969733 650 77 67 40
5.88027738954626 -81.0183398404764 652 78 71 51
5.96144686271484 0.781222635503618 661 82 79 65
6.1778987911644 2.67759969061319 685 129 131 121
7.28243014787085 -87.186511580451 620 93 91 71
7.28243014787085 -88.8772669100416 620 89 90 78
7.28243014787085 -90.5680222396323 620 70 74 67
7.31766771310248 -92.705191009074 623 83 86 82
7.31766771310248 -85.9094453940096 623 79 74 53
7.34115942325691 -52.0974290917813 625 75 76 62
7.35290527833412 -55.5950199342112 626 66 68 51
7.35290527833412 -53.8879024562697 626 68 70 53
7.35290527833412 -43.6451975886204 626 66 71 60
7.35290527833412 -45.3523150665619 626 74 78 70
7.36465113341133 -2.67865028754099 627 130 116 97
7.36465113341133 -47.1346073568749 627 79 81 71
7.36465113341133 -48.8444518595416 627 77 79 69
7.37639698848854 -42.0720675870708 628 58 59 47
7.37639698848854 -84.8863557718667 628 91 78 54
7.37639698848854 -50.63492522403 628 78 79 67
7.38814284356575 -61.0073453985536 629 93 95 78
7.38814284356575 -57.5767482943196 629 67 70 58
7.38814284356575 -64.4379425027875 629 109 107 89
7.38814284356575 -62.7226439506705 629 99 98 82
7.38814284356575 -59.2920468464366 629 73 74 60
7.39988869864296 -4.40949237293594 630 101 87 63
7.39988869864296 -66.2584131392525 630 105 104 88
7.41163455372017 -40.5522962000914 631 66 63 43
7.41163455372017 -68.0843378251678 631 113 112 96
7.41163455372017 -73.2465956298696 631 134 132 108
7.42338040879738 -69.9157165605334 632 115 115 97
7.42338040879738 -71.6391961868258 632 124 122 104
7.42338040879738 -75.0861554394107 632 145 142 114
7.4351262638746 -83.8359959024722 633 152 141 118
7.4351262638746 -38.9546229760155 633 72 63 42
7.4351262638746 -0.978076653629078 633 178 164 145
7.44687211895181 -77.0527035311009 634 144 138 111
7.44687211895181 -6.16642282564968 634 141 125 101
7.45861797402902 -78.9058984642676 635 136 128 101
7.45861797402902 -37.346041653039 635 80 68 39
7.45861797402902 -35.6143809525712 635 85 73 44
7.45861797402902 -7.90780974508544 635 123 109 85
7.47036382910623 -80.7645474468847 636 130 122 97
7.47036382910623 -82.4989351720777 636 151 140 117
7.48210968418344 -96.5255684782972 637 134 137 134
7.48210968418344 -9.66983098238969 637 127 115 88
7.49385553926065 -11.4248530254512 638 89 77 48
7.50560139433786 -34.0961547103843 639 84 77 47
7.52909310449228 -13.2265977536999 641 78 69 39
7.52909310449228 -32.454849090706 641 94 87 57
7.54083895956949 -14.9979819451123 642 59 51 26
7.55258481464671 -23.7887277790511 643 68 59 29
7.55258481464671 -25.5422046773201 643 67 58 28
7.55258481464671 -27.2956815755891 643 64 57 27
7.55258481464671 -29.0491584738582 643 74 67 37
7.55258481464671 -30.8026353721272 643 81 76 46
7.55258481464671 -22.035250880782 643 72 63 33
7.57607652480113 -20.3448588160512 645 68 61 31
7.57607652480113 -18.5859278683318 645 62 54 29
7.57607652480113 -16.8269969206125 645 63 57 32
7.70528093065045 0.775313235840202 656 80 77 61
7.98718145250352 2.65805516732404 680 122 120 109
8.88634819864737 -86.3427711458014 614 68 68 58
8.90082107844973 -88.1605147575413 615 78 80 72
8.90082107844973 -84.8062743456114 615 66 67 55
8.91529395825209 -89.9837124187315 616 65 69 62
8.91529395825209 -83.2643234959711 616 53 51 40
8.92976683805444 -81.7169185968805 617 66 64 53
8.92976683805444 -78.3517700860501 617 58 57 41
8.9442397178568 -75.1081558079185 618 71 69 51
8.9442397178568 -80.1640596483396 618 58 56 38
8.9442397178568 -76.7934570880589 618 64 62 42
8.95871259765916 -71.8536334308864 619 106 105 83
8.95871259765916 -92.1099730892726 619 43 46 42
8.97318547746152 -73.6604689437257 620 90 91 57
8.98765835726387 -55.1509702542255 621 136 135 111
9.00213123706623 -70.5056646015912 622 116 114 96
9.00213123706623 -68.8094552225503 622 118 116 98
9.00213123706623 -63.7208270854274 622 116 114 96
9.00213123706623 -62.0246177063865 622 122 119 99
9.00213123706623 -51.8473614321407 622 105 105 87
9.01660411686859 -53.6296537224537 623 109 109 91
9.01660411686859 -65.5222085488164 623 117 115 97
9.03107699667095 -67.3290440616557 624 115 113 95
9.0455498764733 -48.6886481853485 625 65 66 52
9.0455498764733 -50.3930386385649 625 88 87 71
9.0455498764733 -58.9149909046468 625 137 135 115
9.0455498764733 -60.6193813578632 625 125 123 103
9.0455498764733 -57.2106004514304 625 138 136 116
9.06002275627566 -45.3523150665619 626 66 68 58
9.07449563607802 -2.67865028754099 627 156 142 125
9.08896851588037 -47.2097821692463 628 56 59 47
9.10344139568273 -43.8543598773838 629 66 69 57
9.10344139568273 -42.1390613252668 629 51 52 38
9.11791427548509 -4.40949237293594 630 131 117 94
9.14686003508981 -95.7679109549197 632 151 154 151
9.14686003508981 -0.976531508836615 632 165 151 134
9.14686003508981 -40.6165629135623 632 52 49 28
9.16133291489216 -38.9546229760155 633 59 53 28
9.17580579469452 -7.89535650139239 634 136 123 99
9.19027867449688 -11.3711311460212 635 92 82 55
9.19027867449688 -9.6394704455533 635 136 124 97
9.20475155429923 -35.6704665918666 636 64 57 27
9.20475155429923 -37.4048543170596 636 61 52 22
9.20475155429923 -6.18587526358548 636 139 125 101
9.24817019370631 -34.0961547103843 639 71 66 36
9.24817019370631 -21.8981731148052 639 92 85 55
9.26264307350866 -32.4042175008609 640 65 60 29
9.26264307350866 -13.2059634358314 640 63 54 24
9.27711595331102 -18.4706663001561 641 87 79 52
9.27711595331102 -20.2186891489749 641 88 81 51
9.27711595331102 -23.7147348466123 641 83 76 46
9.27711595331102 -30.7068262418873 641 61 56 26
9.27711595331102 -14.9746206025187 641 70 62 35
9.29158883311338 -25.5024811863756 642 59 52 22
9.29158883311338 -29.0039809334634 642 64 57 27
9.30606171291574 -16.774820185975 643 76 70 45
9.30606171291574 -27.2956815755891 643 62 55 25
9.46526339074167 0.772949475974836 654 100 96 79
9.78366674639352 2.64241954869272 676 121 120 106
9.9283955444171 4.55224755672133 686 120 127 116
10.5263415708322 -69.3721330163567 612 69 68 52
10.5263415708322 -71.0410721481462 612 91 88 72
10.5263415708322 -74.3789504117251 612 82 78 68
10.5435414753597 -67.8138200183655 613 73 72 56
10.5435414753597 -72.8288184879094 613 63 60 44
