ply
format ascii 1.0
element vertex 753
property float x
property float y
property float z
property uchar red
property uchar green
property uchar blue
element face 0
property list uchar int vertex_indices
end_header
-7.35114463020602 -40.2547693202969 639.682582805192 246 240 224
4.41694491946669 -46.6913078079457 646.530944039185 255 234 220
8.29118131437269 -47.2297823030037 647.756761708868 248 237 224
18.9382811558941 -48.6345043998147 651.663183492604 246 239 228
16.4923197400416 -49.1327046838384 654.021789227155 244 237 226
-12.7534395418832 -23.720698170439 628.144953871968 167 164 158
-15.9844970656846 -30.3554491372773 632.523970611534 228 223 216
-13.8195084281384 -32.0139006624689 633.24630244565 237 230 219
-12.5847948157588 -33.43343138639 634.275002362127 238 231 218
-13.7350594549215 -36.8775591121982 636.315928829235 241 234 221
-15.8997948721582 -35.2336912705139 635.602801272132 241 237 223
-13.4287841341506 -38.0652918699778 637.659051536966 248 242 226
28.594380543591 -49.8300461678844 655.767500917553 248 244 230
25.0695372234636 -50.422086657308 655.940344138866 255 252 241
22.1547273045022 -50.0995650344234 654.455059345084 252 247 236
10.6182366936381 -48.4920556103092 650.961452809561 255 252 242
13.558698463646 -48.8120421338245 652.49852615913 251 246 236
17.7016195601503 -50.494486057692 654.963322372959 244 237 226
22.4486046737576 -51.2392186550815 655.743812767795 255 251 241
3.79636546187703 -47.6397817512056 648.18733997005 252 237 222
5.83350225500794 -47.7437493169071 650.100403727732 248 239 226
10.9162467133987 -49.6477356100077 652.268329327279 255 251 244
17.9973336629636 -51.6412625134792 656.260130504562 244 239 228
29.7944173429853 -51.1763081825711 656.680553257192 245 238 225
-11.8888401779338 -40.6617020923602 640.022244668222 254 248 232
-13.1225088133798 -39.2530246277574 639.002174244697 255 252 236
-6.12148203511049 -41.6547122476129 640.689132272217 243 236 223
35.1775575488082 -49.2556599727812 659.578110251265 255 252 241
33.482720116534 -50.2682997345522 659.040692826024 254 250 236
38.9642450769215 -49.8082649386654 660.630435292555 255 251 240
29.8007080763833 36.437906843465 745.059451665704 148 146 121
26.6513164474799 29.7992645494687 742.466318133868 138 135 107
20.2874120504691 -6.13995119731783 717.290606852556 145 134 96
20.8058787710912 -0.408906757294204 719.720280359917 145 140 110
18.5430913609165 -0.801352224816071 722.396538034063 145 136 105
18.5471964310688 -2.40641358545315 720.978792842085 145 137 102
19.3983820801324 2.14316362034913 724.802802828904 143 137 103
19.3987343302439 0.53225311349135 723.380740957439 145 138 107
18.5457874306231 4.03722844197787 726.667040327949 139 135 101
17.1606842742609 -7.8814307197776 718.974603028409 142 129 91
17.1458868606535 -4.6865677085093 721.805487407833 143 132 95
17.1520346274435 -6.28594892955027 720.388606324959 143 132 95
16.2829521178004 -2.813611743107 723.660802222858 140 130 95
17.7774799433237 -13.274851032646 711.558624531824 152 141 108
16.060837994503 -14.3389500640306 711.006524983887 147 140 109
17.1854892079776 -11.0606960077909 716.155229794288 138 128 91
17.2016444948769 -12.6444795055769 714.749859856716 140 130 95
16.3522562256177 -13.9683362668499 713.772851399155 142 131 98
17.853593094476 -17.9905996288063 707.378772507196 141 138 108
16.9547136644621 -16.1686742772322 709.189770959216 147 142 112
14.6335715801592 -15.0381154378306 713.219887742115 147 138 107
19.4051832199914 5.37668292650594 727.655559930813 141 137 103
17.1463145937656 1.74995148379264 727.501789602589 140 130 95
16.2830590510783 -1.20448194503155 725.084877771547 144 134 99
16.2856678643836 0.408547283857672 726.511831106562 139 128 95
20.2645790093596 6.71613741103403 728.644079533677 140 135 104
21.6783586261579 12.2486319678173 730.670720719923 144 139 109
20.817711896776 10.9072277678823 729.680762223896 141 138 108
20.2729833393436 8.34069592573991 730.076213657283 141 136 105
16.2983911310761 3.64630403407747 729.374371135568 138 129 96
18.0145738965073 4.71218377424438 729.924457006281 137 130 99
18.0246883498944 6.33691129557494 731.360043700273 142 137 106
21.6913075328071 13.8827700529331 732.106596738957 140 135 105
18.5844085106138 10.5432613624291 732.401332395023 137 132 101
18.0373046833089 7.96553824771919 732.79850818059 141 136 106
20.3316194595526 14.8779242927013 735.833528014962 138 133 102
18.6003184806797 12.1795181695763 733.842099877606 138 133 103
19.5324629805182 18.4667373836837 739.181699791474 136 131 100
19.5077964303568 16.8168325686883 737.730860056752 141 134 103
18.6187303307728 13.8196744075373 735.285745146514 137 132 101
16.3739821982846 11.8089359488678 736.581082468782 138 133 103
17.267260301299 14.8101625474571 739.032527735731 140 135 105
21.8215404532745 23.7694866107165 740.782286366 130 123 92
38.4882672553796 45.3186307352814 745.918209418836 160 153 130
37.9435386979472 42.752098893139 746.313660852222 165 159 134
30.6676095058335 37.7890596204344 746.056604627546 150 146 121
39.5777243702444 50.4516944195661 745.127306552062 162 153 130
39.8567198122057 47.5425811247871 745.056692092138 151 144 121
39.3489139847615 46.6600349352163 746.908167914863 153 146 123
40.716115601574 48.8820356093152 746.045211695002 150 141 118
37.1560722820723 44.7676437324045 748.240928057439 163 156 133
38.0192208914814 46.1129473631532 749.233764339791 159 153 128
34.9600635528864 42.8603308328359 749.575987336255 133 129 105
37.0214400250049 56.5292927018622 743.343702172084 155 149 132
37.3387357471229 55.2988229333079 744.735153133167 167 162 142
38.478171955386 53.7183108637386 745.661687769058 164 159 139
38.7950084941144 52.4896218039666 747.051125052918 165 158 137
39.3875468381528 48.3441895944126 748.367644874587 152 144 119
40.7542892715758 50.5679709772937 747.502674977503 146 139 116
40.2494445075483 49.6875435097544 749.359042263777 149 141 116
40.7949648216048 52.2578057760861 748.96301604633 146 139 119
38.0608148082895 47.7992207443809 750.698132763064 159 153 128
38.8377267407814 54.1851367423549 748.512330230848 161 155 138
38.5204310186635 55.4156065109092 747.120879269765 158 154 138
41.3404851356614 54.8280680424175 748.566989828883 142 138 122
41.1113421769438 51.0308974250963 750.350439652967 143 136 115
35.8690180825339 45.8959762822507 752.039522398592 130 126 102
35.0021166530838 44.5448235052813 751.042369436751 132 128 104
43.2943029696787 52.9003990628995 749.010770503594 132 128 111
43.6097619582388 51.6770521294743 750.394166755785 139 134 114
29.8773086366965 39.7951938959147 747.983582507719 149 145 120
31.5740621554537 40.8208056390355 748.517261903557 153 147 122
32.4422145249174 42.1739081314117 749.515853758561 155 149 124
22.6909437627518 25.1245388184996 741.782317114167 133 126 95
19.5893017209225 21.7782453061157 742.092012619896 139 134 103
17.8751616521292 20.7180457055449 741.542790858285 138 133 102
18.7817409119043 23.7424998823922 744.008050272803 133 126 95
26.7188278544628 33.1373924610988 745.382965185027 133 129 104
23.6287768459911 29.8141575203483 745.703022267938 136 131 101
26.1685570006613 30.5447476496323 745.782440106834 130 127 97
26.7563363779952 34.8123055631344 746.845605390094 130 128 103
22.7568716564864 28.4552058817513 744.700113733446 136 131 101
21.0472761643582 27.4045858515902 744.154633867263 131 126 96
19.6561479814362 25.1053509518029 745.013836593621 138 131 100
21.4049621204999 27.8310530906243 747.025409235257 136 131 101
23.707214139862 33.1643217376687 748.635207818845 130 127 99
25.9657029356237 36.8129287056432 748.775171731551 127 127 101
30.7203768925377 -46.2977645786389 674.752454780072 142 133 103
28.7538204835944 -42.897030638941 678.168408368835 136 125 94
26.8861080126051 -40.9586908219286 680.278561107278 132 121 90
22.6545994020371 -39.49034415448 684.901250220496 136 125 92
23.6181951395253 -41.2163954378676 683.167662674227 135 124 91
27.34836310114 -45.0862902500126 678.932397347677 139 128 97
24.586794637068 -42.9346478596277 681.439830700608 135 124 91
22.8195585004388 -37.6454566571 688.908932082898 139 129 94
21.1091712516863 -38.6998071114503 688.364027000775 141 131 96
17.4596266781973 -26.7230565990315 702.231030803222 145 138 108
18.3801046616776 -28.5063256557172 700.441905073688 140 137 107
18.2603352202026 -23.8661089405514 704.575997976122 136 131 101
19.3055864052125 -30.2817958507753 698.658534916804 141 138 108
20.8675817686224 -32.6305104421407 693.776006999375 143 134 101
18.4724603561306 -31.5803063117588 697.700232070359 142 137 107
21.8089931590998 -34.3861454698807 692.013930914891 139 128 95
18.5748235706927 -34.6386892445454 694.970070212334 139 130 97
19.5153165943912 -36.3907628547209 693.203966773404 138 127 94
17.3199491297821 -20.5049055323005 707.766176963741 137 134 104
16.5441524547714 -24.9319886807184 704.025912105409 139 132 102
18.2254158330989 -22.3115711738687 705.959784516252 136 131 101
15.5476879302934 -18.4402628696261 709.999491998077 138 135 105
15.9431715958972 -24.3333196200332 707.183767428538 135 130 100
15.8842587085776 -21.2122077809772 709.966879008546 142 139 109
15.0386232593594 -22.5302153960296 708.994187230473 139 134 104
14.6534796870993 -16.616049789396 711.818834484032 142 137 107
14.9652652085438 -17.8251510525629 713.186121318438 143 136 106
16.3075431849609 -9.21113662727126 717.993277891359 141 128 90
14.0612829886734 -14.4146977392661 716.422630346285 137 126 93
15.7675651672736 -11.7552859242788 718.385280620385 139 129 92
14.0480887651909 -12.8287955194486 717.832891747406 142 132 97
14.8930393910631 -9.9053885305099 720.230233858228 141 130 93
14.0769790921831 -15.9967005282698 715.01524673149 140 131 100
14.8860998676488 -8.30973773365801 721.647689725163 140 129 91
16.449359398937 16.7533082675071 740.939642704618 141 136 106
16.4794888925422 18.4092312353477 742.398251689215 140 135 105
16.396606051808 13.4531606242671 738.031058094401 139 134 104
39.3703468938165 -52.366990287272 660.615409274219 255 252 241
40.1546862823666 -51.144518727157 661.517595287313 250 247 233
41.3442091210329 -52.4772110980839 662.400727927625 240 234 218
40.6149369112308 -51.9386990089556 665.327828086915 241 235 218
43.9280253964898 -51.6929646130665 662.539711304233 240 232 215
36.3710864278249 -50.597086880995 660.474763848078 255 252 242
32.9823299300555 -52.6259278221017 659.403956352042 249 245 231
32.6921260279157 -51.5005198717018 658.131312347115 244 237 224
33.7729240186737 -51.3937076849521 660.31333683095 255 252 241
40.5611206724965 -53.6977329427922 661.499980807694 249 245 231
34.967703837704 -52.733184877759 661.211429320926 255 251 241
40.7305022527513 -53.3775275401339 664.042746524936 241 233 217
40.8485694742993 -54.8124566404984 662.760542749282 241 235 219
32.3667069752909 -53.5392162455013 661.049712978756 254 250 239
29.1775434482071 -52.0915463213778 658.324870990743 243 237 221
33.5627377343349 -54.8767437229014 661.949244361895 255 252 242
36.1615652899554 -54.0691006530013 662.105494456456 255 252 241
36.4508508253161 -55.1909471858366 663.374111106937 254 250 239
31.7111607370912 -47.9864332560466 673.053111344668 218 211 190
26.5390049123172 -46.3477561182654 678.001433471326 144 135 105
27.5226156900236 -48.0426119551429 676.290868215662 160 153 130
24.0713610747301 -45.3631540067712 681.814015123769 134 123 90
32.7069483416993 -49.6673030718267 671.359523481916 251 246 226
28.5112302277846 -49.7296689303928 674.586058532649 235 230 209
36.4060763464058 -51.9841028128219 668.51696351349 249 243 226
32.2018076154757 -52.0473137045111 671.726235712294 251 245 228
20.2860527227135 -39.9827198491787 687.417235299633 140 130 95
20.4608133781444 -38.1350376032689 691.443618907126 137 127 92
21.244977273382 -41.7110588612225 685.675303719429 135 125 90
18.7471324927403 -39.1970179126221 690.896410822738 138 128 93
17.6393343070487 -32.8788167727424 696.741929223915 140 135 105
16.9711155837961 -30.7634995712282 701.238969265151 140 137 107
17.0155833076195 -32.3006589058737 699.864680193101 140 137 107
16.1799553785103 -33.6030687976711 698.90349956033 142 137 107
16.2788983462663 -36.6617897437068 696.166432561533 138 129 96
15.3443274494012 -34.9054786894683 697.94231892756 141 132 101
21.3166331042705 -43.2108355898879 684.335258758244 134 124 89
15.1714603141621 -28.7490424892591 703.445230788411 139 136 106
26.27220251304 -51.7717410829348 656.860876403337 254 250 239
11.1112801447 -49.3249951079803 654.862883600308 246 239 228
12.3241268217697 -50.6937303103383 655.81592402539 245 238 227
5.21509210421095 -48.6938349623245 651.762265906205 251 247 237
8.46599394119062 -50.1700991479486 654.632397443414 253 249 239
13.5360551320605 -52.0589040951317 656.764937096026 247 238 225
9.68100992505288 -51.5404460524643 655.590904116105 248 243 233
20.1174641000313 -53.2073645527053 656.834306601229 252 248 238
22.742482043013 -52.3788722757396 657.032566190505 255 252 242
24.7462081247061 -52.4824895497441 658.876003756411 250 246 232
29.4691249005152 -53.2222963981245 659.603556027339 245 237 221
26.857202151214 -54.0403640715573 659.42630118542 243 237 221
-3.76405636074924 -42.9395493851258 643.970350839433 254 250 240
-4.89273780679389 -43.0510937573644 641.691654384795 249 242 229
-10.6560899092668 -42.0668181393984 641.038287737301 243 237 221
-6.43920641873547 -43.7912569619016 643.68174577004 253 249 235
-10.3507329552749 -43.2509894796134 642.377383090586 242 236 220
-16.1222863661815 -38.9206392284064 637.334481870553 241 235 219
-16.4294800537313 -37.7293450530623 635.987331808376 246 242 228
-15.8150926786317 -40.1119334037505 638.681631932729 243 237 221
-3.46099532370465 -44.1148171814295 645.299377806603 253 239 229
-7.05953265601556 -44.7543145886688 645.347345977917 255 252 241
-18.0663670229527 -33.5827005937006 634.881619006137 250 245 238
-2.23533876895954 -45.5060255714587 646.292406317127 202 162 154
-1.01060058099324 -46.8936725439233 647.281407473204 255 235 223
1.3367703160294 -48.1667207464586 650.534720018317 251 238 223
-5.52726820726491 -47.3277446035061 647.680908734889 250 241 228
-2.55181221257089 -47.6406205703404 649.286458708113 251 236 221
1.63845380290559 -49.3366464164154 651.857705953818 248 239 226
22.1258613685442 -53.3086940980536 658.686088201069 255 252 242
20.4122598360656 -54.3505795909279 658.127087378385 255 251 241
39.2170172645539 -54.0687788528743 666.072262809638 242 236 219
39.3321234226852 -55.5058266752703 664.785167570436 240 234 217
35.0046570999975 -54.1346154864688 669.266285833736 247 243 226
35.8369379939547 -56.1040666026117 665.023320304037 244 240 226
36.9160258613094 -55.9974234224866 667.201892217486 242 236 219
37.0294218960377 -57.4346402515072 665.911344407898 239 233 217
28.0021307184401 -52.128331684023 674.955644683329 251 247 230
25.1307130766008 -48.5464262931221 678.765133125126 143 137 110
22.3622247659913 -46.4155547457146 681.27054893481 140 131 100
18.0501450385889 -43.5012689904064 687.246796233664 136 126 91
17.9202611437266 -40.4857797965712 689.945302442107 140 130 95
17.9839521511441 -41.9954741088957 688.594610444723 139 129 94
-11.8974075302965 -44.0039556588758 644.374665075621 245 238 225
5.51539804091874 -49.8584185059345 653.079210810037 255 252 242
2.85918595052146 -50.7155588515934 652.833186153395 248 243 232
16.5739832898541 -53.8359426149859 656.990168563606 246 237 224
13.0229968395951 -54.4762189697078 657.137397167006 244 235 222
10.8951075421363 -52.9072315394155 656.545383434349 247 238 225
16.8701565760567 -54.9844997795554 658.288990372431 248 241 228
-19.0811382785658 -28.4527346844682 632.101965828111 154 149 143
-22.0950727373289 -31.4613291627244 634.774322472985 181 178 174
-18.5976357177741 -36.0858152246272 635.267299110501 246 242 232
-21.698568287011 -34.2072640257354 634.850756708662 140 135 129
-16.4365432457706 -41.0842325876784 640.350395385949 252 246 230
-15.2007053035322 -42.4945217544389 641.375932057083 255 250 233
-21.6132330427108 -39.1219653677406 637.95259806179 254 250 240
-21.9227226472078 -37.9217676484851 636.595379613498 197 192 185
-20.3733890601219 -40.5409890717879 638.991655689425 240 236 222
-14.8935116159824 -43.685815929783 642.72308211926 246 238 222
26.2413732333695 -54.9664554696821 661.079248411924 247 239 223
27.0394729620696 -53.7225370400912 661.997262249809 244 238 222
22.7145344738339 -55.5915627569343 661.267622400936 247 240 227
21.6183453724479 -55.6998960033055 659.054524783628 255 251 241
22.420197921189 -54.450128427494 659.976855301002 253 248 237
4.07899973135818 -52.0909098692066 653.804638998526 254 250 240
7.94976862222848 -52.6023357192813 655.007156650635 252 248 238
5.81570397762664 -51.0230020495444 654.396155713869 255 251 244
8.24915619215744 -53.7633578453267 656.320074200022 250 245 234
13.3205476759662 -55.630118260624 658.4422600075 244 235 222
15.3412483815356 -55.7247536266287 660.315621138758 252 247 236
21.0018513081341 -56.6370096673732 660.712648932698 254 249 238
-3.16996914305844 -48.6052898992653 650.957525163599 250 237 222
5.29789514541619 -53.4626994692555 654.772064489211 254 249 242
9.46450474925439 -55.1281936168709 657.275992411429 245 238 227
15.6383400345172 -56.8768722087627 661.618470302029 255 251 241
27.332431964546 -54.8586292431848 663.281988318074 248 244 230
-15.513584632953 -44.6634572400577 644.397886604149 244 238 222
-12.5166887906429 -44.9778665449612 646.04889477645 251 244 231
-7.67894052651673 -45.7209336330006 647.01697354024 252 248 237
33.8529416364745 -56.0021516733012 663.221888366821 255 252 241
26.8388590651418 38.173830059647 749.779519159206 126 124 99
26.8838732287561 39.860441454124 751.250792723251 129 128 100
24.581621209394 34.5271728070795 749.640994139663 126 124 99
21.4446399508249 29.5043544905022 748.493515687933 137 132 102
14.8797264609019 -5.10673784751293 724.491234818009 140 129 94
14.0203306715337 -6.44619233204097 723.502715215145 140 129 92
14.025781841577 -1.6182959179408 727.785299572369 140 129 96
13.1626332321679 -2.96359954868953 726.792463290016 138 128 93
14.8970022077356 1.34605509454244 730.212858439611 137 126 93
14.0326026583128 -0.00119825161314679 729.218583264095 138 127 94
13.1999240192198 3.52038883987601 732.537109202223 136 127 94
11.757602291989 -11.6879027190504 721.920552658743 143 135 100
11.752147252021 -8.48846425046989 724.768125106036 138 127 90
11.7566997321622 -5.27342805863429 727.627208698631 138 127 92
10.8902495826255 -9.83181816581171 723.776727716846 143 133 96
10.8923001827395 -6.62068140478988 726.632933523116 137 126 89
14.1158769392846 -19.1490078138359 712.209112860877 143 138 108
11.798534932252 -18.0399864864463 716.259941200066 145 136 105
10.9059377826592 -14.6192775762412 719.514002404884 145 134 101
10.916170942725 -16.2072985180902 718.098849540215 140 129 96
10.9441429029382 -19.3716421093469 715.277177169853 148 141 111
12.7061433620084 -21.4372988117688 713.023146713202 145 142 112
10.9141401831149 -1.77473053215391 730.938825629963 134 123 90
11.7958272527719 1.20343749480213 733.37990931973 135 126 93
10.9264239432946 -0.151614712981086 732.379878571563 137 126 93
16.3538602247883 10.1686107042821 735.133984629487 141 136 106
13.2335806929093 6.78577961904131 735.42669887628 141 136 105
13.2155014160509 5.15113451405176 733.980465146089 138 131 100
10.9584971037358 3.10631521780599 735.270617813741 140 131 98
14.1042349424002 8.14278154223135 736.42816851761 137 132 102
13.277244886708 10.0667681214617 738.32779969564 139 134 104
13.3028298036483 11.7131115188925 739.782666784809 138 133 103
14.2065746101613 14.7281551319547 742.247636874284 138 135 105
14.8285688743762 20.6629962924896 744.771139360346 140 137 107
16.5472535198346 21.7327754634703 745.324103017385 142 137 107
14.2727557242054 18.0442385116989 745.174637770574 139 136 106
13.3309166006156 13.3633543471371 741.240411660303 140 135 105
11.0005777842862 6.37984287184804 738.172868201221 136 131 101
11.0253709446022 8.02245584508964 739.628310074449 136 131 101
11.0824629053161 11.3193800840143 742.547827179883 135 130 100
13.3945958346325 16.6755382960677 744.164534770268 139 136 106
11.9941725353003 14.3443412807355 745.023444305559 139 134 104
16.5848886535217 23.4003967237522 746.791345360959 140 135 105
19.1390942948113 24.1634559884548 746.88141410208 137 132 102
38.1049106051248 49.4893935564224 752.165378972663 158 152 127
28.5851713241784 40.8956327676545 751.788214014517 129 126 98
35.0937284935605 47.9255071426136 753.98376699672 137 133 109
33.7215703739231 45.6683209486546 754.857362520731 119 117 93
31.1558727290779 43.2858762889684 753.32566605395 124 120 96
28.6326873678198 42.5861435929453 753.262365364887 127 123 98
31.2046397127332 44.9783368296659 754.801256297483 126 122 98
24.6725679034013 37.8968341784688 752.587568622198 128 127 99
24.7217940704459 39.5875140103841 754.065172542954 126 125 97
29.0041336641117 43.034057701455 756.148968557673 125 119 92
18.0188616932654 27.3878547201742 747.397949951037 138 133 103
15.1890099308547 21.07877927883 747.653996791678 135 132 102
13.4682825887584 20.0033199682532 747.100169025536 138 135 105
19.2193683222401 27.5064973706462 749.821654361879 136 131 101
17.5044364968226 26.4425673458862 749.273007384328 135 130 100
15.2296061279585 22.7485192611434 749.1261305988 137 132 102
16.9478315900276 23.8200791409064 749.677080578617 133 130 100
22.3202979603705 30.8691552753197 749.500740901914 134 129 99
21.5315012515566 32.8626555826995 751.438361952263 128 125 95
18.428988100178 29.4925368296476 751.760424980348 130 127 97
20.142668985582 30.5545171390008 752.307633064736 127 124 94
21.5786847219633 34.5476552750188 752.915101763917 127 124 94
22.9654742913002 36.8501135791214 752.044966542341 126 126 100
16.1546169147035 25.7967080361225 751.615561872043 130 127 97
17.0365296243172 27.1712573979744 752.629981551839 130 127 97
21.6283700723974 36.2365543981518 754.394719361896 125 124 96
24.165980920275 36.9687562295935 754.468670953183 125 124 94
20.2404561732017 33.9248545368885 755.268017828815 126 123 93
18.5267752877978 32.8628742275353 754.720809744427 127 124 94
25.5999539600186 40.9562142260154 755.075275543261 128 125 97
24.2169172107227 38.6596050681334 755.949727444325 124 121 91
29.8971106494199 -54.0091940785766 672.867943317455 250 246 229
25.2173801876531 -50.0228064369049 677.442354881895 165 161 137
19.9786668065041 -46.9313270252959 683.769267295992 134 125 94
19.9049682789777 -45.4372304362265 685.108448148074 137 126 93
21.8459994470292 -48.8477913170472 681.645308142031 133 128 98
15.678684553078 -44.0231500653693 689.774284726053 136 126 91
15.5002475411169 -39.4818618160807 693.845351788341 138 127 94
16.5068068421053 -42.7324384660133 690.726831999846 140 130 95
12.0004904540872 -30.5569813421774 705.076852026343 141 138 108
12.0369933544393 -32.1040582604818 703.691915918093 142 139 111
14.2569044575152 -26.9615359885105 705.244139445043 135 128 98
12.4710095280312 -24.9256320370656 707.466228793095 136 129 99
14.72241318353 -34.3344436577287 701.073124605638 146 141 111
13.8842833743935 -35.6407529803398 700.109066186542 147 140 110
16.3321226501852 -38.1853010705041 694.802215741623 136 125 92
13.0461535652571 -36.9470623029509 699.145007767446 147 138 107
14.6683724320486 -40.7784225616574 692.888487835059 140 130 95
14.0313202758589 -40.2234922730467 695.997424656677 142 131 98
13.0939149257318 -38.4765917825934 697.773021697661 141 130 97
11.8555041527356 -22.7631052884487 712.044699362477 145 140 110
11.8794976529514 -24.329679360822 710.645374322599 140 133 102
11.0881039042329 -28.7710865435865 706.881226930584 137 134 104
11.0578557039489 -27.2142610482476 708.273357504648 136 131 101
9.27834208468778 -25.1759003615221 710.50724345702 139 132 101
9.61583122975105 -27.9514066904377 710.478657821934 141 136 105
9.5687625960984 -24.8218199632556 713.281335256136 145 138 107
9.59104597291116 -26.3885630422535 711.878557645872 144 137 106
8.66002983648309 -21.4337491950938 716.521292988344 143 140 110
9.50464788912052 -18.5158533391265 718.921223560449 139 130 99
10.8982065026207 -13.0273572035785 720.932033055879 144 134 99
7.77608233370768 -19.608522075116 718.361350896613 145 138 107
9.48353222947185 -8.93992047851984 727.467389606688 137 127 92
8.61639725658904 -11.892911211811 725.041558957652 142 136 102
11.1147617057139 12.9736913496973 744.011902412089 139 134 104
12.0687776562053 17.6685615353565 747.963105915272 136 133 103
10.2043030157432 9.95067986838299 741.537724179577 135 130 100
34.1431455386141 -57.1275596237011 664.494532371748 254 250 239
26.5343322358459 -56.1025476727756 662.363974480188 244 238 222
35.3373395641003 -58.457964265972 665.386009045995 250 246 232
28.8240502162483 -57.3356413346183 665.473725694309 255 252 241
26.8272912383223 -57.2386398758692 663.648700548452 245 238 225
27.6253909670224 -55.9947214462783 664.566714386338 255 250 239
30.0217910986954 -58.6729998053937 666.376709647833 255 252 241
27.1202502407988 -58.3747320789627 664.933426616717 251 246 235
31.2186136143636 -60.0067968586046 667.275666246912 254 250 239
35.6270842828504 -59.5815915075896 666.656639373698 242 238 224
34.6118674315684 -57.9409896888555 668.333820761575 241 235 219
33.601654340341 -56.292589008494 670.016757722103 244 238 221
23.807045655299 -52.2271567513578 678.205190426593 180 177 156
24.7950743995158 -53.9051411760717 676.493764927851 253 250 230
21.0303865581383 -50.1190057623344 680.707149799866 141 137 112
17.6698523514771 -48.952049153265 684.937434298045 131 126 96
28.4898165334076 -56.1913308545191 673.623877587406 250 246 229
31.2952472508822 -58.2546383891841 671.155012756878 248 244 228
16.6357723701885 -45.7443662422839 688.024298436957 136 127 96
13.2522102873201 -43.0417836366383 693.674330206262 142 132 97
13.3099791679041 -44.5557153930258 692.31385528178 137 127 92
13.1969432867634 -41.5239524494371 695.03768291707 140 130 95
9.81708225136344 -37.2465805324533 702.139692391143 146 139 109
9.90418096545238 -40.313776366615 699.383059538151 142 133 103
14.9162959681058 -46.8178758374538 687.471909563978 133 124 93
9.73999105738346 -34.1637869750364 704.907836389437 142 139 111
5.59820108212398 -54.6272830128654 656.089009393043 255 250 243
9.76343313579389 -56.2874350341341 658.586896283592 245 236 223
12.7043068319617 -56.5818156081992 660.109588433582 246 239 226
0.802255440600788 -53.9239108163579 655.231405149549 252 248 238
-0.419727647028708 -52.5469480965869 654.254486056809 250 243 232
2.94224221203615 -55.4990070420316 655.852189013413 255 250 243
5.89850701883176 -55.7918665564754 657.405954296875 252 248 238
12.0889843547362 -57.5370743733389 661.78094421411 251 247 236
6.19881295553967 -56.9564501000854 658.722899200707 245 240 230
8.23227628155485 -57.0461719955287 660.619853540605 245 238 225
22.0997505329229 -56.5285074143775 662.929199120391 247 239 223
21.2966470441684 -57.7802247055959 662.005429709855 246 240 224
23.3032075791235 -57.8744314158151 663.849156600803 245 237 221
-14.279124240883 -46.0684042804713 645.417382243614 245 239 223
-11.2848568887548 -46.3794211744349 647.060910491083 255 252 241
-10.978581567984 -47.5671539322146 648.404033198814 255 253 242
-7.06914498531182 -48.0857148958661 649.691136892364 248 237 224
-11.8129585570795 -48.867614108605 647.444291459206 255 251 238
-13.0455822155918 -47.4697899033204 646.432850528633 250 244 228
-20.9942538337167 -41.5223608062517 640.667034958374 244 238 222
-23.0784823255102 -41.4193950018499 638.656724445829 244 240 229
-19.7553282179067 -42.9378230927344 641.702065231563 254 248 232
-22.7685335376237 -42.6213734298877 640.015956571344 241 237 223
-21.5278977984107 -44.0366667097459 641.054439414918 244 238 222
-20.3752746247226 -43.9227562447628 643.381471854958 255 249 232
-6.76424721470937 -49.2681055272989 651.028218568426 248 237 222
-2.86644892262439 -49.7823384043512 652.288565807992 249 238 223
-3.48322830294353 -50.7523498596229 653.965673295146 244 237 224
-12.5206643091109 -48.3379271992996 650.421451956078 250 243 230
-11.2897507740017 -49.7359204112087 651.429440316266 246 237 224
-6.45934944410692 -50.4504961587317 652.365300244488 249 237 220
-6.15445167350447 -51.6328867901643 653.70238192055 248 237 222
-4.00737118814732 -53.2218906728472 654.346180342969 247 236 221
-1.86212743634792 -54.8037717204009 654.981924056496 245 238 225
19.7716182798429 -58.5219212482023 664.040979294175 245 237 221
33.2076137318982 -60.1009129262876 669.082853756779 240 236 220
30.6058723700904 -60.9380613764517 668.93810707547 245 241 227
22.4833782339972 -55.9078872095934 677.645247728059 254 250 233
25.2782156378183 -57.9777199169776 675.1582559365 250 246 229
19.6985483502851 -53.8224567789542 680.143750664922 216 213 192
18.7189436129291 -52.1363354793635 681.867836877086 147 145 121
16.847984762518 -50.2330121755866 683.992081490066 144 138 111
13.3702499285152 -46.0657477185995 690.956258143624 141 132 102
12.5396257594607 -47.3603587487693 690.000833083505 145 138 108
12.6036493401128 -48.8645419281223 688.647552624837 140 133 103
-19.1372673756915 -45.334657113681 644.412474773701 245 237 221
-13.3575431782338 -49.6422868065038 649.458832430145 255 252 241
-16.3558959236375 -49.3426301917323 647.813575964471 250 244 228
1.40654078113209 -56.2673235738361 657.881404374997 255 250 243
0.281279581893614 -56.3785299328255 655.609613061131 250 245 234
14.1121869403329 -57.6278103085299 663.657183131693 255 251 240
11.4745802442895 -58.4958945560432 663.456327349084 255 252 242
15.3213601502869 -58.9822998406296 664.594114138991 250 243 230
-22.1486359618507 -45.0253302859634 642.734420822374 255 252 236
-20.9089185894165 -46.437062148257 643.768876311502 255 252 236
-19.7562954157285 -46.3231516832739 646.095908751542 246 238 222
-27.1166891193765 -39.3427886611437 638.5563253214 153 148 142
-26.4101092710172 -43.2979937939462 639.996593821097 211 206 200
-27.8226038212663 -35.3765612623983 637.110879899136 155 154 150
-24.234907150282 -44.9280446211577 640.723246200726 242 237 230
-18.5192065334763 -47.7314911346275 647.122884315838 246 238 222
22.6893420049915 -58.8149374908228 665.514760674704 245 237 220
27.4132092432752 -59.5108242820562 666.218152684981 251 247 236
20.0673323826561 -59.6686977039896 665.337787425778 248 238 221
22.9841377410258 -59.9581525290454 666.80754145186 244 236 220
5.58282533184467 -57.9227311311679 660.399431903802 245 238 227
7.61753959787359 -58.0105033112043 662.297825136862 245 238 227
14.7082069798539 -59.939170307927 666.270936167128 247 239 223
10.8610945006218 -59.458276156312 665.135737838504 254 250 239
19.4540526020684 -60.6182763295332 667.010007315409 248 238 221
0.790679767591882 -57.2408964466724 659.562539216598 254 250 240
4.96775607492862 -58.8925735798151 662.079991961342 246 239 226
14.0959721761998 -60.899602192789 667.951785549711 248 238 221
11.1604820705508 -60.6192982823574 666.44865538789 247 240 227
28.6122010657359 -60.8462330374248 667.122575531669 254 250 239
-21.5287383860776 -47.4292871420391 645.452885073403 252 246 230
-19.052058741546 -50.2420666139325 647.509713988323 242 236 220
-20.2899393804224 -48.8374575867681 646.483313208086 245 237 221
-13.975320278257 -50.6288316606899 651.143705301149 250 245 234
25.0963280403091 40.0302549991716 756.961269337795 124 119 89
25.1510171507977 41.7269529839321 758.446642508425 124 119 89
25.6529329471041 42.6527432041514 756.557196143506 122 119 91
27.6786204785662 42.4435570921187 758.50908295441 122 117 87
17.0846314615029 28.8526956727292 754.110748717938 125 122 92
17.9677951111303 30.229194749988 755.126607290896 124 121 91
8.61788174003539 -10.2891235400824 726.47167553801 146 136 101
9.18761732433984 -2.86171912854732 730.379817075229 135 124 91
8.6373464705382 -5.45436394001388 730.779291997037 137 126 93
9.51949272358479 -2.47797662184016 733.222389364027 141 132 101
7.76794316106088 -6.80941614779701 729.77926124887 137 127 92
7.79092716817195 -3.57064535782959 732.662516700191 133 122 89
9.55248425080492 0.776391891382275 736.117155960651 142 133 100
8.67932812128674 -0.58450946262144 735.112808532995 142 131 98
10.9782865039973 4.74112932942012 736.720304114318 137 132 101
8.71982528858859 2.68155734304227 738.016208488596 142 133 100
6.88658076116246 -12.9875296632074 724.480247400653 140 134 100
6.89111743435137 -16.1834067142233 721.628647598914 139 130 97
7.75426604376059 -14.8381030834746 722.621483881267 146 137 104
7.20627933350579 -12.6177731775975 727.305842296539 140 136 102
6.38036973857606 -5.91014825466311 733.505312951673 143 132 101
5.47442014144144 -13.7180717685899 726.743666630438 140 135 104
5.48581311519501 -10.502359550256 729.616560504576 142 136 102
5.49526242211277 -8.88865429486827 731.057324121134 137 128 95
8.67605851322764 -23.0102408511261 715.111320912266 144 141 111
6.37274974353124 -23.5107779775973 717.767707943075 142 139 109
5.48165675426151 -20.1027030354928 721.032412318069 140 133 102
5.47609478101572 -18.5123943649877 722.455909216673 137 130 99
5.48972060753476 -21.6891122751841 719.61179320579 144 141 111
6.3870682968726 -25.0874386402542 716.354283296611 144 139 109
8.15381929568775 -27.1307127975412 714.096804135599 142 135 105
6.41427963257513 -2.65934115900518 736.404106902743 144 137 106
8.74382669228044 4.32043989209475 739.472225145885 140 135 104
9.6484898655724 7.33192208759237 741.941222589806 137 134 104
8.77032997599963 5.96322187196103 740.931119589499 138 133 103
5.60449774419169 0.875465284546664 739.76233933332 143 138 108
4.7250869146053 -0.495184646491538 738.75079743985 144 137 106
7.98293839770713 9.54041503459052 744.310649958501 137 132 102
10.3435057374439 16.58352265437 747.405536253702 138 135 105
8.01819826152166 11.1968450223049 745.779616654255 139 134 104
13.8326030754328 20.4176602590605 749.991945274862 132 129 101
12.1098330366985 19.3365208088876 749.437253399618 136 133 105
12.4780329535685 19.7494184041618 752.337948466939 134 131 103
15.5964284946601 23.1667589827643 752.020784634453 130 124 97
13.8761603359533 22.0895189634053 751.468970545534 130 127 99
8.94037459500453 14.2356232334989 748.268758602456 137 132 102
6.51212198090036 3.88906620207572 742.236228240789 139 136 106
4.77901184882262 2.78681789567648 741.672613681525 142 137 107
7.42474997766374 6.91046598123239 744.71587272091 139 136 106
6.54283726804999 5.5359166193804 743.701453041115 139 136 106
8.05596000536354 12.8571744408332 747.251461136335 140 135 105
8.13898913312914 16.1895315703309 750.203783459472 135 130 100
9.02590560279737 17.5718797938104 751.223958711918 136 133 103
5.80380074725247 10.7799643732571 748.570954853229 139 134 104
29.0571126511971 44.730586679591 757.630889157917 122 118 93
26.3549440265787 41.8459336476533 760.877252060039 118 113 83
22.9425935359345 39.7453696138296 759.800102609216 122 117 87
22.0042815924292 36.6739532605924 757.296857188405 127 124 94
21.2326654705715 38.689238450697 759.257211204316 125 122 92
19.4638362912895 35.9323408653656 757.222616272075 125 124 96
23.8257571855619 41.1218686910884 760.815961182174 119 114 84
9.91282207246559 18.9542280172899 752.244133964365 134 131 101
18.8509587607576 31.6056938272469 756.142465863854 124 121 91
13.9707804970764 25.4449346645365 754.431654445853 131 126 96
14.856446026731 26.8253331726091 755.450390805136 126 123 93
10.8487587460985 22.0144530979596 754.749103737357 137 131 104
11.7369261557803 23.3987510368459 755.770717882966 133 127 100
18.0740063056106 33.6076690227525 758.099652768397 126 123 93
16.6277770860402 29.5861301887543 757.487863523703 125 122 92
16.6825928066835 31.2755363317611 758.97783883284 124 121 91
14.9087598673469 28.5108398848022 756.937488327947 126 123 93
18.1308647228918 35.3027553053554 759.590492186637 126 123 95
19.0177811925601 36.6851035288349 760.610667439083 123 120 90
16.7399104073542 32.9688419055818 760.470691928302 124 121 91
14.4579542288725 29.2412200031365 760.328988199316 129 124 94
21.6166684242291 39.129263055043 762.174598205532 118 113 82
28.9856731349266 -60.2316094666309 672.295566927894 244 240 223
29.0901859794046 -61.6751824617459 670.99034472766 241 235 219
14.5335014009669 -52.2725554311261 685.159669842033 147 144 116
13.5660734905125 -50.572448110438 686.90073344711 141 134 104
10.2255222283738 -49.4217775295699 691.182227850991 144 137 107
11.0000876402477 -46.613065736388 693.501580405978 142 135 105
10.9440288830668 -45.098964973376 694.865507900845 142 133 100
10.165710651152 -47.9135259127785 692.54183866637 146 139 109
11.7796568121759 -43.7965550815787 695.826688533616 144 133 100
9.95148314253777 -41.8415251374752 698.009059791143 139 130 99
8.79373009735912 -30.834207669081 708.10462732676 140 137 107
8.89435560816526 -35.4817945900888 703.935144611364 143 138 108
7.94434182809994 -32.158064430354 707.127618869198 140 137 109
8.76519202047825 -29.2772131671175 709.50021047121 141 138 108
7.40673908028521 -34.691022454794 707.517897246044 137 134 106
7.34807941327506 -31.5844942992454 710.310213103064 138 135 105
6.49618926398864 -32.9122504913322 709.330326859176 140 137 109
8.0885166959506 -38.3392492684427 701.579819727307 149 140 109
7.47540626740431 -37.7819528870876 704.737092534326 143 138 108
8.58083369856638 -45.6528988064199 697.429242583248 146 137 106
7.64276320196984 -43.9170205819095 699.210016546799 143 134 103
7.2994272663741 -28.4623684204417 713.114040105386 140 135 105
6.44503523706044 -29.7940240433423 712.131276075173 140 135 105
6.7825243821236 -32.5695303722579 712.102690440088 139 136 106
4.12763355397942 -30.3215191722607 714.774423742475 142 137 107
5.0498734334351 -33.6735593874395 711.541089558046 142 136 109
4.11002136398656 -28.7524883646067 716.185545386674 144 141 111
4.08230262408267 -25.6027284568575 719.016422034048 148 143 113
3.22040495468707 -26.9460823721994 718.025024644858 143 140 110
4.07219607417164 -24.0219993567623 720.436177037223 142 139 109
3.19383812499507 -22.1980459256929 722.288606333873 144 141 111
4.05948861443153 -20.8488428641304 723.284320402551 142 137 106
4.05688770460222 -19.2564154715939 724.712708764703 144 137 106
4.60557504515555 -16.6712315085057 724.314383411016 144 135 104
4.07150286555816 -12.8477115933101 730.45504007657 143 141 109
4.60626777197774 -15.0711742609662 725.745074775434 142 135 104
4.91688427758424 9.39761614977763 747.550779600783 137 132 102
6.73394190420663 13.8286601681101 751.07074383763 138 133 103
27.9991272482281 -61.7830086882433 668.78760482151 253 248 237
22.3716497170623 -60.9040007303999 668.479186557431 246 239 226
28.2920862507045 -62.9191008913368 670.072330889775 246 239 226
23.5737292130945 -62.2445826054907 669.393103006173 253 249 235
24.7748903423476 -63.5816030630169 670.302992100469 255 251 237
19.2676125922071 -57.7257313677229 679.189690597243 249 245 228
23.8661709820611 -60.1822392380549 675.917638910811 249 245 228
16.4833685020392 -55.6493734876197 681.694809349834 243 241 221
14.6075325017282 -53.7611408872241 683.817900528668 158 156 132
25.8710794437334 -63.4732698166458 672.516089717777 240 234 218
24.8661233328701 -61.8316539581641 674.213986527968 240 234 218
9.57950752900877 -48.8932982235325 694.288283020259 143 136 106
8.63268045231689 -47.1710680068703 696.058984731669 143 136 106
10.2878356856229 -50.9261297155476 689.825494821938 145 138 108
7.85015021697166 -49.9896973837112 693.728985140483 143 137 110
6.7096964654279 -42.1733434957715 700.996546083001 144 135 105
6.66785723178646 -40.639576572066 702.378315079883 144 137 107
5.13648538378186 -38.3280094944155 707.346574740847 137 134 104
5.74354707534008 -38.8822514780799 704.174916868224 142 137 107
5.67487988822086 -35.7913210457864 706.955721579942 140 135 105
5.28699430462598 -44.4793509389909 701.794177326474 142 135 105
5.33087623490519 -46.0074377231003 700.413272438695 142 135 105
10.3526510228993 -52.4265824707114 688.47163957921 145 142 112
5.07624220352352 -35.2289421872452 710.140040165988 143 137 110
-1.25600536225875 -57.1543073130082 657.639977990836 253 248 238
6.18435557203918 -60.2554596359524 663.037349065912 247 242 231
7.00372128097115 -58.9783960444446 663.979824087565 250 245 234
8.21815147128927 -60.3396703984243 664.931714944527 255 251 241
-2.79145357285324 -57.93720752832 659.678397629433 255 251 244
-5.14895860013962 -56.672465207286 656.408971800512 247 238 225
-0.741807379585907 -58.0216779399526 661.605850318743 251 247 237
-7.29716341535584 -55.0927028817638 655.768336623437 248 238 221
7.60525152116566 -61.3111245492291 666.617741249676 255 251 241
11.4598696404796 -61.7803204084028 667.761572937277 245 237 221
5.57020468190217 -61.2288635021642 664.721936477898 255 250 239
6.7858858122338 -62.5881881407369 665.675266228022 255 251 241
19.750225888271 -61.7668334941026 668.308829124234 245 237 221
-17.9011456912611 -50.128325155574 649.833293857976 253 246 233
-18.7430283204385 -51.4404836244058 648.864918759392 245 238 225
-10.9830162698414 -50.9254338777706 652.77457670122 247 236 221
-13.6676674073177 -51.8219065448163 652.492869040549 246 237 224
-10.6762817656811 -52.1149473443325 654.119713086174 248 238 221
-13.3600145363786 -53.0149814289427 653.842032779949 247 239 223
-25.7874565949074 -45.7126349027155 642.727140135465 240 235 224
-30.4528606415487 -41.2309670236498 639.89245280124 205 204 200
-26.4071497814138 -46.7121517382514 644.415751035872 252 248 234
-9.44720496412981 -53.5058177211125 655.119646737469 249 239 222
-18.5183369977402 -51.1239425602961 651.524782544709 255 252 241
-13.0523616654393 -54.2080563130692 655.191196519349 249 238 223
-19.3614705669312 -52.4380507445347 650.554968552962 253 248 237
-12.7447087945001 -55.4011311971956 656.540360258749 250 238 221
-10.5917061823095 -56.9858976358154 657.193941608265 250 238 221
-6.686449507372 -57.4610455621939 658.446527330007 244 237 226
20.0463991744737 -62.9153906586721 669.607650933059 246 239 226
18.8407622274046 -61.6176456772995 678.23735874777 243 239 222
17.8504848234701 -59.9581443669067 679.955110737199 252 249 229
23.2574144753336 -64.3389879714147 672.363569920569 250 246 232
22.5486316506727 -63.8459292775025 675.360288539586 241 235 219
13.2634381140482 -57.4986727414202 683.249316739108 248 245 225
11.3889796639054 -55.6157822673713 685.378448949611 159 158 136
7.90825167079038 -51.4981180071272 692.365921754718 145 140 110
10.4199682402028 -53.9231357950616 687.120662122808 156 153 125
7.07262374168124 -52.8005278989245 691.404741121947 141 138 108
-19.1346099374404 -52.1231213825827 653.220298585888 255 251 240
-20.9060079308559 -53.2401101006661 652.585904400702 255 251 240
-4.32506504988987 -58.7272305787609 661.724871976922 255 251 244
-2.27245779320583 -58.8095822683621 663.657216129781 247 240 229
14.3944413793498 -62.0570629012698 669.260675744651 247 237 220
12.6702937904473 -63.1328602250958 668.699942837737 247 237 220
7.90601664126302 -62.4774888016213 667.936699830731 250 245 234
9.11906928141275 -63.8334210292542 668.882549656023 244 238 222
15.6022370391355 -63.4062103070228 670.19156572028 246 236 219
-27.9564849423131 -47.5092069812852 646.433740711172 255 253 239
-26.7136798963074 -48.9261119633011 647.477689802355 253 246 233
-32.0910930652428 -37.0314989632298 638.752511352235 148 147 143
-30.6796755876233 -44.989559710171 641.657783396341 206 201 195
-30.9856199089727 -47.2125924857566 644.726337978553 241 236 225
-30.3665125160105 -46.2040030996847 643.031111262417 246 242 232
22.1578051271415 -64.447659231035 670.14356716249 253 249 235
20.6387457468791 -65.2125049878111 672.20529455071 255 251 237
6.17265328887561 -63.5651534245133 667.363880994454 255 251 241
16.8091143321421 -64.7517962952111 671.118428341463 242 236 220
12.0586447803374 -64.1023646604937 670.387408036049 245 235 218
12.3580323502664 -65.2633867865391 671.700325585435 242 234 218
10.3312035547834 -65.1857918393226 669.82437212687 244 236 220
8.3009545124944 -65.1085349053552 667.941513527532 252 247 236
-4.93850353632808 -59.7169988372623 663.420677343144 254 250 240
-3.71526950868497 -61.0920118416265 664.399035329046 245 241 230
-1.05139307235538 -60.1829835705686 664.630107868075 244 237 226
0.168753281716249 -61.5528234552104 665.598972251923 244 239 228
2.30368903586748 -63.1083318842792 666.197605666333 251 246 235
16.1982570786565 -65.71757030642 672.805318755714 250 246 232
8.6012604492023 -66.2731184489652 669.258458431365 246 239 226
12.6574199201953 -66.4244089125845 673.013243134822 247 240 227
8.8083120015549 -65.9765815587981 671.893575573897 245 235 218
-25.1600076956363 -51.5485567909191 649.884898373499 241 235 219
-26.4014351914736 -50.1369939352502 648.846990313985 243 237 221
-24.848222174192 -52.7576580540861 651.252185207906 244 237 224
-18.8246611495539 -53.3250998106205 654.579530711403 249 242 229
-20.5955999595799 -54.4438692374862 653.94715020344 255 251 240
-18.5147123616673 -54.5270782386583 655.938762836918 245 237 221
19.0783924298821 38.3860389576584 762.105823536811 120 117 87
12.735643373528 28.1582998441814 759.776310001294 128 125 95
11.8449740838188 26.7701024744813 758.751818069359 127 124 94
10.9543047941096 25.3819051047812 757.727326137424 133 127 100
14.5169819529463 30.9346945835818 761.825293865164 126 123 93
3.78730560393853 -6.75374351345783 733.3824312608 138 129 96
4.68116950049716 -3.76158946540451 735.840492343478 142 133 102
2.35741795747049 -10.7298412306878 732.777554888927 145 140 109
2.37233020783219 -9.11011782245487 734.226087755359 145 138 107
2.40966034863732 -5.85897271354776 737.1317868472 149 140 109
3.31274000868098 -2.85495136642848 739.601933859242 144 139 108
2.32278775629629 -17.1697405554817 727.012201286455 147 140 109
2.32769248654893 -15.5656148705039 728.449223007585 144 137 106
1.47060051760411 -13.7085162775175 730.326113488003 144 139 108
2.43207823908085 -4.22755101287353 738.588953072609 147 140 109
1.53024951905093 -7.22962264458596 736.120244953731 145 138 107
1.77172514587051 -19.7661157911374 727.412250992323 147 143 109
0.042755567773952 -17.6789338551514 729.722101225233 148 142 108
0.917162637305864 -16.3160827857407 730.727887546051 147 142 111
0.940399864726373 -13.0918956792808 733.620347274384 145 143 111
0.902852469231789 -24.3083105126497 723.547099485917 147 142 112
0.907496075698759 -25.8950577655902 722.119575232867 147 142 112
0.901070896379565 -21.1231177143274 726.410781350994 148 143 112
0.900710742792057 -22.7176638288954 724.977501525293 148 143 113
0.0405946462486781 -27.2462105425596 721.122422271026 144 141 111
3.58448850979539 -32.8805901660248 715.168725607741 144 141 111
2.48441966004987 -0.953009319083804 741.511918882404 144 139 109
5.20376519009164 6.47832562217869 747.502604915353 139 136 106
3.43243413078244 3.71752860603343 745.465132196786 141 138 108
2.51434319057523 0.690110674031644 742.977718466791 141 138 108
1.69477942203946 2.6057007292244 744.897775742093 140 137 107
-0.698672511639529 -6.08264560570203 740.332198398958 145 140 110
-0.640408963837103 -2.80386646784936 743.26494713585 141 138 108
3.4686123613759 5.37039717618342 746.938126246986 138 135 105
5.84577449452479 12.4443622292237 750.04912969202 140 135 105
5.93722762915115 15.7848562335982 753.01411272858 136 133 103
2.7014890436111 8.96420210181554 750.349883183606 141 136 106
8.60923549827862 19.9494483426986 756.087588524385 136 130 103
8.66246770567363 21.6313936373271 757.578713401642 136 130 103
6.03868828388659 19.1409479612278 755.990606910442 137 134 104
1.20669880346531 3.26300570184492 748.255313095589 139 136 106
-0.572137895925721 0.490510393258347 746.209207018045 139 138 108
2.74642385430002 10.6307186798137 751.832949485946 142 137 107
5.14551711415015 17.7488511607139 754.963237192182 137 134 104
3.73822122550996 15.3694966441718 755.836524061026 137 134 104
3.68703171475272 13.6932314891394 754.346263292872 138 133 103
1.28998115154047 6.58077914783513 751.216839695738 140 137 107
1.94937700600974 12.5814036123303 753.778906838179 140 135 105
15.971381959068 34.9789539759641 762.440539546268 123 120 90
