ply
format ascii 1.0
element vertex 595
property float x
property float y
property float z
property float nx
property float ny
property float nz
element face 0
property list uchar int vertex_indices
end_header
-14.4504466421687 46.2857165677773 736.959577045364 0.104549 -0.196266 -0.974961
-16.4317813494386 47.3980041444682 734.9060158491 0.092626 -0.180821 -0.979145
10.450335412763 25.9279919144577 741.514319638799 0.117334 -0.194236 -0.973912
13.8043980920546 20.0589678750823 738.279259959698 -0.323078 -0.213776 -0.921911
13.3060477622037 22.715524500862 739.112024471594 -0.281888 -0.190065 -0.940433
-22.6623969915342 50.1467977464883 732.400440274115 0.029434 -0.155204 -0.987444
-3.51555568313194 39.3110732142186 739.042530402096 0.085743 -0.194077 -0.977232
-7.62393633605296 41.9372336686328 735.841145229965 0.056489 -0.219906 -0.973884
-5.33736351362094 40.0187826509068 736.087211219305 0.069 -0.219476 -0.973175
-0.906668126320298 36.5765982638087 737.489150797886 0.061633 -0.205622 -0.976689
0.906505653571926 35.8750246661918 740.439815456157 0.086693 -0.178238 -0.980161
3.37006493595453 33.5373126438265 739.794691943676 0.07952 -0.198389 -0.976892
5.67678387644574 31.6045446682674 740.051618490229 0.090602 -0.181255 -0.979254
7.81802842444876 30.0828565785859 741.205940571298 0.100819 -0.167315 -0.980735
10.3074898586217 27.7267370390066 740.574780632378 0.072215 -0.161967 -0.98415
12.9854498202076 24.9431753760264 739.058637224331 -0.181281 -0.133777 -0.97429
-9.7565468334592 43.4527859192431 734.691477673418 0.067479 -0.211225 -0.975105
-12.6157987030106 46.9521528100759 738.083090575514 0.094998 -0.218756 -0.971144
-18.5557577962481 48.9074205560071 733.761002817072 0.075327 -0.160563 -0.984147
-20.8137419320002 50.8078299633229 733.529192473802 0.063326 -0.144098 -0.987535
18.6507431816333 -6.58886416883468 731.104766960973 0.847096 0.529678 -0.043232
17.7867395313416 -2.94670315764034 733.643084900918 -0.99452 -0.103705 0.013248
-3.81390120533214 41.4978840801156 739.013857504367 0.091864 -0.199454 -0.975592
-1.36799298809522 39.1772661088808 738.356906071514 0.064279 -0.181376 -0.981311
0.927022402957533 37.2550904385775 738.606367149709 0.06822 -0.186548 -0.980074
3.06251091722935 35.7374929082769 739.75758621443 0.082745 -0.197239 -0.976857
5.53432128625663 33.3984674198283 739.114598355139 0.070874 -0.214113 -0.974234
7.67556583425964 31.8767793301467 740.268920436207 0.083499 -0.189299 -0.978363
9.99072734337157 29.9402867020103 740.529242071616 0.127273 -0.169792 -0.977227
-5.63321398290766 42.2083706101013 736.057570958419 0.065083 -0.212775 -0.974931
12.4884398641892 27.5828536963479 739.900217785885 -0.070749 -0.154501 -0.985456
-7.91671730649806 44.1223651616429 735.814315912918 0.063186 -0.22049 -0.97334
-10.3424794056758 46.4286661750446 736.482127902985 0.080996 -0.21402 -0.973466
-14.5915688585254 48.0627610138799 736.031372959931 0.088665 -0.190801 -0.977616
-16.7126672884692 49.5701321457285 734.887911436077 0.086052 -0.15731 -0.983793
-18.6970714945808 50.6868761886037 732.831539295974 0.068486 -0.136704 -0.988242
-12.7567294373912 48.7267860696845 737.156145925747 0.083966 -0.196198 -0.976963
-14.4481735237073 49.0551925362624 733.281034803363 0.074003 -0.170648 -0.982549
2.7553398624563 37.9328507997391 739.722999356516 0.061822 -0.206821 -0.976424
0.622729365050077 39.4484030503493 738.573331799968 0.039383 -0.213201 -0.976214
5.22388925066585 35.600692963969 739.07594111772 0.067064 -0.229094 -0.971091
7.70395070633781 33.2603540094372 738.435088911618 0.091782 -0.229425 -0.968989
-1.66921652716104 41.3661222544682 738.326681665612 0.053681 -0.216571 -0.97479
9.67434779207353 32.149013992026 740.486222382184 0.124248 -0.187332 -0.974407
-4.11186376358025 43.6798725730244 738.987703477969 0.074951 -0.217352 -0.973211
12.3454028280719 29.3840100073908 738.959419343798 -0.050869 -0.15869 -0.986017
-8.35981665719912 46.6987053961023 736.697677413915 0.068415 -0.237421 -0.968995
-5.62152276609491 43.5969834080523 734.218208691785 0.036618 -0.223198 -0.974085
-10.6316164313511 48.6021076423881 736.461887836774 0.074154 -0.204359 -0.976083
-12.7527148612949 50.1094787742367 735.31842631292 0.062199 -0.183975 -0.980961
-16.8537895048259 51.3471765918311 733.959707350645 0.079455 -0.146354 -0.986036
-55.1433304624059 50.3692414167702 734.458176077564 -0.798187 -0.105208 -0.593152
-53.3611367556241 51.4255919264835 736.50995165004 -0.65956 -0.148515 -0.736834
-55.1073965231692 51.3470366670086 731.696155020675 -0.946975 -0.016718 -0.320872
-51.1220982702824 50.5101267522983 733.966342872267 -0.135108 -0.210887 -0.968128
-48.7707358570903 49.2031525144015 730.505935390007 0.115984 -0.221338 -0.968275
-56.3380602560607 46.5452503576091 725.967196208085 0.997316 -0.015855 -0.071483
-46.69455492499 49.0791213241224 729.802641688893 0.116596 -0.24397 -0.962748
-44.7145787114028 49.3487946383765 730.017899127315 0.110009 -0.24996 -0.961986
-42.8388668209974 50.011074736753 731.150831487747 0.093325 -0.247283 -0.964438
-40.9685280003711 50.6726230215223 732.283179703163 0.09998 -0.245574 -0.964208
-38.993924856563 50.9415645221691 732.497852996568 0.098002 -0.244826 -0.964601
-37.1316456406053 51.6020150865276 733.62932499446 0.073228 -0.262181 -0.962236
-34.9297081062069 51.0883043665549 732.0106929514 0.052585 -0.258919 -0.964466
-33.0701154251387 51.7483890241098 733.141872876784 0.027487 -0.263492 -0.96427
-31.2158958138496 52.4077418680575 734.272468657152 0.011077 -0.26432 -0.964371
-29.3670492723396 53.066362898398 735.402480292504 0.007266 -0.261308 -0.965228
-27.2720625960125 52.944893055744 734.701231098946 0.035613 -0.23205 -0.972052
-25.0432597127188 52.4348414038073 733.085519780966 0.044341 -0.199564 -0.978881
-23.0659700340212 52.7041488112578 733.300485146879 0.065288 -0.174847 -0.982429
-21.0886803553235 52.9734562187082 733.515450512792 0.071615 -0.161814 -0.984219
-18.9748879347697 52.8545477236796 732.816245826791 0.069927 -0.165971 -0.983648
-14.5896787040161 50.8370593553531 732.350311846599 0.067594 -0.151651 -0.98612
4.7460622156016 38.2039877412075 739.939425084969 0.03517 -0.224759 -0.97378
7.39064065388142 35.4646248332684 738.394880166025 0.073853 -0.277088 -0.958002
9.53188520188444 33.9429367435869 739.549202247093 0.075712 -0.216368 -0.973372
12.0259537779323 31.5971937635909 738.913588710528 0.022252 -0.161777 -0.986576
0.318819291094727 41.6368932891331 738.542815321558 0.030282 -0.231947 -0.972257
2.77835166475538 39.3156936654224 737.88858368691 0.026655 -0.250603 -0.967723
15.9311335295841 24.5243147879048 732.981141029563 -0.608876 -0.153947 -0.778184
16.4350484111902 21.8660787892382 732.150220098349 -0.710763 -0.22696 -0.665811
17.2994581743327 18.3555854759361 729.545060922502 -0.93272 -0.181292 -0.311717
-2.12920101510355 43.9499117940821 739.203252988899 0.071238 -0.236594 -0.968993
-3.78437977402331 44.2661967436485 735.340754858778 0.036648 -0.238223 -0.970519
-6.07037815052716 46.1774142018925 735.098467176435 0.045322 -0.220606 -0.974309
-8.6516402177639 48.8717809566422 736.677145275195 0.072979 -0.225191 -0.971578
-10.7727386477077 50.3791520884907 735.533683751341 0.04669 -0.196637 -0.979364
-12.8938370776516 51.8865232203393 734.390222227487 0.047157 -0.166477 -0.984917
-16.9949117211826 53.1242210379337 733.031503265212 0.069805 -0.160272 -0.984601
9.21608009651457 36.1444304741204 739.509960864659 0.078472 -0.264384 -0.96122
4.77176055279021 39.5871965136944 738.105301487872 -0.018932 -0.26795 -0.963247
7.07771356537717 37.6640732841115 738.357190291764 0.03739 -0.273049 -0.961273
11.7068876917447 33.805555146803 738.870276948589 -0.016321 -0.214349 -0.976621
0.177122628809855 43.4211712947178 737.610832929129 0.009905 -0.271559 -0.962371
2.63627203851838 41.1047940439951 736.95408242315 0.014525 -0.274187 -0.961567
-4.08234233227139 46.4481852365574 735.31460083238 0.031517 -0.232907 -0.971988
-1.79365742087801 44.537333685117 735.557180587231 0.016118 -0.258119 -0.965979
-6.3652712099336 48.3549462286169 735.075124093876 0.041381 -0.224606 -0.973571
-8.94308081437656 51.0400341441941 736.659132007806 0.062105 -0.217847 -0.974005
-10.766420500674 51.7670330728345 733.693737339691 0.023555 -0.19238 -0.981038
-53.3194467826563 52.399296617341 733.751033609497 -0.441335 -0.192771 -0.876392
-51.1689363751112 51.883456041088 732.124333317453 -0.10571 -0.221103 -0.969504
-55.1599906617293 52.724456515179 729.851042449514 0.998912 -0.030974 -0.034854
-49.007679828008 51.3690790920493 730.498801315441 0.088508 -0.207944 -0.974128
-56.3944898213666 47.9367714179402 724.114234950423 0.992829 0.037274 -0.113587
-46.9343769127733 51.2470931814606 729.793956106153 0.082776 -0.238252 -0.967669
-45.0584735403918 51.9069620933431 730.928147902251 0.10489 -0.235135 -0.966287
-43.0838703965837 52.1759035939899 731.142821195656 0.095004 -0.225416 -0.969619
-41.2160266288709 52.8346747854616 732.27613677423 0.096887 -0.245145 -0.964633
-39.3535559309371 53.492714163326 733.408868207787 0.085006 -0.254293 -0.963384
-37.4964583027824 54.1500217275833 734.541015496329 0.063192 -0.280694 -0.957715
-35.1854578213514 53.2516695965775 732.001514369277 0.050763 -0.278364 -0.959133
-33.2108546775433 53.5206110972243 732.216187662682 0.030346 -0.280757 -0.959299
-31.3564435842781 54.1775527546779 733.348042878716 0.020942 -0.283914 -0.958621
-29.507405560792 54.8337625985245 734.479313949733 0.030848 -0.27015 -0.962324
-27.412610366441 54.7147039423645 733.77680532051 0.059299 -0.238406 -0.969353
-25.1841904470994 54.2094746634158 732.158575131199 0.071232 -0.215953 -0.973802
-23.2069007684018 54.4787820708664 732.373540497112 0.088013 -0.193535 -0.977138
-21.0959863647136 54.3619188555281 731.672784302937 0.075844 -0.191023 -0.978651
-19.2523214110065 55.0173968857673 732.803471228938 0.089421 -0.192628 -0.977189
-53.509136228851 55.5372485129595 730.98682507507 -0.323335 -0.231969 -0.917412
-53.3689714223746 53.7722599993271 731.908731982175 -0.392092 -0.191927 -0.899682
-51.3092926635637 53.6508557412144 731.201166974682 -0.069811 -0.224525 -0.971964
-49.1484190804126 53.1413011651638 729.573116101339 0.044468 -0.233009 -0.971457
-47.272324226055 53.7987588905522 730.708567333102 0.090666 -0.216907 -0.971973
-45.3004076171365 54.0673344843955 730.922948553999 0.077406 -0.211974 -0.974205
-43.3284910082179 54.3359100782388 731.137329774896 0.084587 -0.233523 -0.968665
-56.4513023506246 49.3331148512594 722.258754821431 0.998489 0.054221 -0.008942
-41.3565743992994 54.604485672082 731.351710995794 0.081928 -0.238005 -0.967802
-39.3846577903808 54.8730612659253 731.566092216691 0.068745 -0.257526 -0.963823
-37.5246821453605 55.5283235504922 732.699791013406 0.057215 -0.277464 -0.959031
-35.4408245725437 55.4102124536119 731.994854658485 0.044469 -0.29262 -0.955194
-33.5862219973025 56.0647429245715 733.127969310184 0.036497 -0.298445 -0.953729
-31.6169919232735 56.3329526116112 733.342058458573 0.036394 -0.278409 -0.959773
-29.6477618492444 56.6011622986509 733.556147606962 0.043006 -0.263448 -0.963714
-27.6785317752154 56.8693719856906 733.770236755351 0.08255 -0.238533 -0.96762
-25.4531813547155 56.3685991729264 732.149195622201 0.096565 -0.232887 -0.967698
-23.6093249190324 57.0216660166716 733.281141983868 0.086904 -0.229127 -0.969509
-15.0149355075954 53.3938943521878 733.246760703633 0.058295 -0.162921 -0.984915
-21.3705418240848 56.5227227379254 731.661561213258 0.086896 -0.234279 -0.968278
-19.5293719232912 57.175423674867 732.793215502417 0.086975 -0.229455 -0.969425
-17.2750317323089 55.2867042932178 733.018436594851 0.078684 -0.199775 -0.976677
-13.0349592940083 53.6635676664418 733.462018142054 0.03387 -0.195679 -0.980083
-51.3567052143206 55.0314185894861 729.355379112872 -0.057758 -0.23752 -0.969664
-51.6827574961879 57.5700808068281 730.278715243845 -0.084836 -0.21123 -0.973748
-47.4128719964835 55.5685697771727 729.784141554666 0.086411 -0.200833 -0.975807
-55.2129677642414 54.1066987363377 728.003411007022 0.974439 -0.053826 -0.218109
-49.3847886054021 55.2999941833294 729.569760333769 0.058049 -0.21046 -0.975878
-53.8294324769871 58.0718201709205 731.91326422239 -0.434677 -0.234001 -0.869655
-45.440955387565 55.837145371016 729.998522775563 0.069344 -0.220549 -0.972908
-56.5084978438348 50.7342806575666 720.400755821107 -0.993495 -0.077037 -0.083867
-43.5727286559 56.4910941894996 731.134357225468 0.072655 -0.242147 -0.967515
-41.603498581871 56.7593038765393 731.348446373857 0.060808 -0.259886 -0.963723
-39.7433314548746 57.4121549746121 732.483404606237 0.041661 -0.271045 -0.961665
-37.665038433813 57.2957232506187 731.776624670635 0.037052 -0.296154 -0.954421
-35.6958083597839 57.5639329376583 731.990713819024 0.031838 -0.292964 -0.955593
-33.7265782857549 57.832142624698 732.204802967413 0.042314 -0.294893 -0.954593
-37.6938367223193 58.6812586330096 729.931621880715 0.044127 -0.268486 -0.962272
-31.8771572983167 58.4835300955564 733.338592909761 0.051726 -0.2848 -0.95719
-29.7881181376969 58.3685619987774 732.632981264191 0.068525 -0.262773 -0.962421
-27.693705907298 58.2543257156055 731.927953763637 0.091916 -0.25055 -0.96373
-25.4660519158607 57.758741182633 730.304685831664 0.106237 -0.243392 -0.964092
-23.619317463312 58.4097627466878 731.438183701504 0.102091 -0.245267 -0.964065
-21.7779560805423 59.0600524971354 732.571097426329 0.085934 -0.253956 -0.963391
-15.2977420536113 55.5560117006683 733.233401960765 0.057769 -0.19929 -0.978236
-17.4159624666895 57.0613375528264 732.091491945084 0.063138 -0.234983 -0.969947
-2.09430651401563 46.7189562712223 735.530734488325 0.006398 -0.243796 -0.969805
2.49419241228139 42.8938944225679 736.019581159391 -0.02734 -0.293816 -0.955471
0.035425966524997 45.2054493003025 736.6788505367 -0.000811 -0.269948 -0.962874
-4.37992192656738 48.6253513564782 735.290965677313 0.039786 -0.225159 -0.973509
4.79707592602671 40.9752276591694 736.268659019444 -0.011435 -0.298236 -0.954424
6.76516944082503 39.8586993619666 738.322019288833 0.006115 -0.28916 -0.957261
8.90065795509686 38.3411018316659 739.473238353555 0.04987 -0.283919 -0.957551
11.212175519439 36.4162992291961 739.726970738128 0.10794 -0.294443 -0.949554
-6.50677639024241 50.1368130477076 734.144401137112 0.027696 -0.219386 -0.975245
-8.93388465047728 52.4258698488474 734.82073710433 0.021442 -0.200931 -0.979371
-10.9077341990068 53.5464887054311 732.764273818593 -0.004903 -0.208474 -0.978016
-13.3204523749137 55.8253191081188 733.448367326678 0.02973 -0.226331 -0.973597
15.9658546685464 25.9306878660524 731.136850801509 -0.666881 -0.120479 -0.73536
15.4628971968207 28.5768679322488 731.974068911051 -0.58438 -0.104615 -0.804709
-19.8060394716238 59.3286280909786 732.785478647226 0.07407 -0.264724 -0.961475
-0.267718179526113 47.3842947931101 736.653371800951 0.003399 -0.254655 -0.967026
2.1877872854126 45.079607568054 735.990032044138 -0.023443 -0.276609 -0.960697
4.65480481781366 42.7667392242362 735.332898320018 -0.036844 -0.30782 -0.950731
-4.67711855691122 50.7976951034109 735.269849393577 0.030298 -0.241747 -0.969866
-2.39457264320114 48.8957564843395 735.50680726075 0.00695 -0.235385 -0.971877
6.62308981458806 41.6477997405393 737.387518025073 -0.012771 -0.31393 -0.94936
8.75857832885985 40.1302022102386 738.538737089795 0.019768 -0.297633 -0.954476
11.0699044112259 38.2078107942629 738.791210038703 0.021418 -0.333476 -0.942515
14.2805644521222 34.2471329920787 734.560812965759 -0.540678 -0.224844 -0.810625
15.1396127199351 30.8041529006094 731.92038959128 -0.636135 -0.105148 -0.76438
-6.64828157055121 51.9186798667982 733.213678180349 0.009735 -0.22084 -0.975261
-9.07500686683396 54.20291429495 733.892533018897 0.007755 -0.214121 -0.976776
-15.580165635675 57.7133066761608 733.222562089227 0.048657 -0.246772 -0.967851
-17.6955080318877 59.2165872486285 732.08220358172 0.062445 -0.272423 -0.960149
-0.57047936162509 49.5583179129296 736.630411936534 0.022707 -0.241326 -0.970178
1.88176512249589 47.260498340552 735.963001800216 -0.003956 -0.243625 -0.969861
4.34552167407924 44.9544976494128 735.301797696592 -0.041729 -0.296341 -0.95417
6.48101018835106 43.4369001191121 736.453016761313 -0.015835 -0.293641 -0.955785
8.61649870262288 41.9193025888114 737.604235826035 0.013277 -0.302591 -0.953028
10.7519872168947 40.4017050585107 738.755454890756 0.033921 -0.337128 -0.940848
13.958620349069 36.4575396549811 734.515949695646 -0.422863 -0.332834 -0.842857
-2.69445580843454 51.0677343244686 735.485398904506 0.025167 -0.250005 -0.967917
-4.81843225524398 52.5771507360075 734.340385872479 0.011651 -0.222339 -0.9749
-6.94240870205341 54.0865671475465 733.195372840452 0.003869 -0.213223 -0.976996
-11.3431626962161 56.0946265155692 733.663332692591 0.009913 -0.231971 -0.972672
-13.605562491867 57.9822481768077 733.437235382632 0.032036 -0.259612 -0.965181
-15.5796035223725 59.1052782198854 731.37951266123 0.045831 -0.282684 -0.958118
-9.36587301751842 56.3639339230197 733.878298058504 0.005012 -0.23437 -0.972135
10.6099075906577 42.1908054370835 737.820953626996 -0.032965 -0.301138 -0.95301
8.4744190763859 43.7084029673842 736.669734562275 -0.027302 -0.281741 -0.959102
6.33893056211407 45.2260004976849 735.518515497553 -0.026995 -0.291421 -0.956214
4.20344204784226 46.7435980279855 734.367296432832 -0.028553 -0.230372 -0.972684
13.4587265889603 39.065140737273 735.373318775835 -0.282676 -0.342912 -0.895827
1.74006846021102 49.0447763461368 735.031019407787 0.007757 -0.215493 -0.976475
-0.87285757977196 51.7275186597611 736.609970943447 0.030746 -0.246009 -0.96878
-5.11505443965964 54.7422609234582 734.323047895739 0.022509 -0.231877 -0.972485
-2.83576950676728 52.8471899570652 734.555935383408 0.029349 -0.227694 -0.97329
-7.38858333882081 56.6332413304702 734.093263424417 0.027727 -0.235341 -0.971517
-11.7778252655211 58.6331195797313 734.567429309251 0.011253 -0.266178 -0.963858
-9.65635620425078 58.5201311781015 733.866581969442 0.007679 -0.264181 -0.964442
-13.6023138436749 59.3745856273359 731.594478027143 0.01989 -0.295942 -0.954999
-55.4410862025862 56.2640782884201 728.002190892641 0.96368 -0.055068 -0.26132
-49.6207751664395 57.4538648285071 729.568923437529 0.051745 -0.200829 -0.978259
-49.761131454892 59.2212645286335 728.645757094758 0.082489 -0.215296 -0.973059
-53.8793400806576 59.4496059258946 730.068443723737 -0.231193 -0.225453 -0.946425
-51.8229223026643 59.3350693204605 729.35680833674 -0.014453 -0.222658 -0.974789
-55.668821676979 58.4166354675144 728.003489649591 0.999598 0.026853 -0.009065
-47.6515450924105 57.7220745155467 729.783012585918 0.071985 -0.21089 -0.974856
-45.6823150183815 57.9902842025864 729.997101734308 0.04947 -0.209542 -0.976547
-56.6507689520478 52.5257922226334 719.464995121682 -0.99342 -0.070952 -0.089897
-43.9200817349075 59.0244179659186 732.056616212042 0.042099 -0.237383 -0.970503
-41.8500398004905 58.9092997080085 731.347700623251 0.050695 -0.264809 -0.962967
-39.883496261351 59.1771434882446 731.561497699132 0.02995 -0.28086 -0.959281
-35.8361646482364 59.3313326377848 731.067547476253 0.040116 -0.28799 -0.956793
-37.9457510107178 60.8305226508716 729.930291985093 0.033519 -0.2723 -0.961628
-33.7500035044822 59.2184098206962 730.36038432251 0.043201 -0.276496 -0.960043
-31.8977045001783 59.8677520118641 731.495725773031 0.063689 -0.27142 -0.960351
-29.9284744261493 60.1359616989038 731.70981492142 0.077045 -0.266943 -0.960628
-27.8342536777265 60.024136602226 731.003527985201 0.085087 -0.261463 -0.961456
-25.7346598595246 59.9130433191555 730.297825193997 0.095897 -0.249541 -0.963604
-23.7600567157165 60.1819848198023 730.512498487403 0.093273 -0.266392 -0.959341
-22.0515541300333 61.2088004470625 732.566171514977 0.086056 -0.27448 -0.957734
-19.9465872420523 61.0984389775991 731.861052868789 0.074753 -0.286095 -0.955281
-17.8362472842923 60.988809321743 731.156518367618 0.053112 -0.295756 -0.953786
-15.7205342567532 60.879911479494 730.452568011463 0.028071 -0.303862 -0.952303
8.33233945014891 45.4975033459569 735.735233298515 -0.007294 -0.280751 -0.959753
10.4678279644207 43.9799058156563 736.886452363236 -0.050819 -0.279691 -0.958744
13.3158810348191 40.8638858618219 734.433779769413 -0.216215 -0.369064 -0.903904
4.06136242160527 48.5326984065583 733.432795169072 -0.019564 -0.187065 -0.982153
6.19685093587709 47.0151008762576 734.584014233794 -0.00045 -0.209492 -0.97781
18.1653997932838 14.8258026706817 726.949977231979 0.841175 0.471492 -0.264801
19.0328732680434 11.276730373475 724.364969026779 0.696177 0.484384 -0.529821
1.59837179792616 50.8290543517215 734.099037015358 0.00663 -0.190504 -0.981664
-1.17485283396668 53.8918970336046 736.592048821691 0.052372 -0.234276 -0.970758
-3.13507822607248 55.0119342377123 734.538305334161 0.036519 -0.227762 -0.973032
-5.41129366012318 56.9025487379207 734.308228790331 0.031171 -0.238782 -0.970573
-7.6817530604427 58.7890726787484 734.081255262848 0.030578 -0.261143 -0.964816
-11.9183730359496 60.4029304663518 733.643003530814 0.015732 -0.297934 -0.954457
-9.94645642703102 60.671506060195 733.857384751711 0.027897 -0.270552 -0.962301
-13.8870409966761 61.5266923230367 731.585864954428 0.019581 -0.318657 -0.947668
12.8171361665667 43.4570198251496 735.298705463595 -0.239266 -0.305859 -0.921522
10.1506766979938 46.164155333928 736.855734957951 -0.067089 -0.221344 -0.972885
8.19025982391192 47.2866037245297 734.800732034755 -0.040313 -0.209897 -0.976892
3.58640761618192 51.0998253863863 734.315170671303 0.005449 -0.195709 -0.980647
6.0547713096401 48.8042012548304 733.649512970034 -0.010783 -0.166893 -0.985916
-1.31578356834731 55.6665302932131 735.665104171924 0.040044 -0.221592 -0.974317
1.12955599018611 53.3872683991806 734.987034405267 0.041872 -0.221848 -0.974182
-3.43400398142556 57.1718561453712 734.523194156244 0.040027 -0.219803 -0.974723
-5.55222439450381 58.6771819975293 733.381284140563 0.045658 -0.234369 -0.971075
-7.82249231284726 60.5612947518629 733.155570048746 0.048394 -0.260881 -0.964157
-54.1089961620356 61.5921524522093 730.074488150841 -0.318124 -0.229711 -0.919799
-47.7919013808629 59.4894742156732 728.859846243148 0.080919 -0.215898 -0.973057
-52.0554564009079 61.4796611264655 729.36130125567 -0.007282 -0.226199 -0.974054
-55.7221817434433 59.8037000616611 726.153339335768 0.97398 0.006152 -0.226549
-45.9232916852458 60.1386006611687 729.998199564383 0.033537 -0.228002 -0.973083
-56.8775412293356 54.7004159869777 719.455251030151 0.997257 -0.04233 0.060719
-44.0600550594078 60.786995293057 731.135968740602 0.027864 -0.248641 -0.968195
-42.0961980551579 61.0544731664895 731.349473743976 0.028423 -0.255575 -0.966371
-40.1323410509079 61.321951039922 731.562978747349 0.023498 -0.273643 -0.961544
-40.1638258743038 62.7071205155094 729.717683884921 0.017447 -0.253222 -0.967251
-35.8624678838292 60.7196451134734 729.221577323176 0.04599 -0.273385 -0.960805
-31.6797824207148 60.5000854794987 727.80590043439 0.066 -0.247348 -0.966676
-33.6570720994124 60.2307780720482 727.590935068477 0.048078 -0.258333 -0.964859
-29.8246053995453 61.1473823909762 728.942793393085 0.085781 -0.242691 -0.966304
-27.8500022557373 61.4163238916231 729.15746668649 0.086792 -0.250549 -0.964205
-25.8753991119292 61.68526539227 729.372139979896 0.085549 -0.255914 -0.962907
-28.2399569290252 63.9389707861964 730.077571384268 0.069393 -0.228034 -0.971177
-23.9007959681211 61.9542068929169 729.586813273301 0.070066 -0.271359 -0.959924
-22.324769215572 63.3527260240017 732.563764474956 0.068782 -0.276625 -0.958513
-20.2226803444567 63.2444098342287 731.857094320595 0.066286 -0.298332 -0.952158
-18.2534502704276 63.5126195212684 732.071183468984 0.050388 -0.302966 -0.951668
-16.0023833928887 63.0299728955044 730.445506446922 0.026084 -0.324769 -0.945434
-54.2487780045599 63.3523185928536 729.155100115067 -0.179426 -0.263185 -0.947913
-56.036338993896 62.3293587872532 727.085400370767 -0.988442 -0.10541 -0.108953
-52.1954297254083 63.2422384536039 728.44065378423 0.005372 -0.259426 -0.965748
-50.091599396658 61.747138999898 729.574806259043 0.030824 -0.215863 -0.975937
-50.1367083764776 63.1328901279614 727.72679159841 0.107865 -0.231008 -0.966954
-48.0300000308617 61.635745394565 728.862495581397 0.048447 -0.23022 -0.971932
-48.1701648373381 63.4007339081975 727.940588674291 0.074381 -0.248545 -0.96576
-46.1638853881581 62.2820947467629 730.001816265789 0.020274 -0.223328 -0.974533
-44.2000283839081 62.5495726201954 730.215321269162 0.021326 -0.234312 -0.971928
-42.2361713796582 62.8170504936279 730.428826272536 0.019211 -0.229473 -0.973125
-44.1341538097098 63.5606929900055 727.441691854384 0.030566 -0.229866 -0.972742
-56.8510014813753 55.7281143399836 716.666197679271 -0.976377 0.040389 -0.212264
-37.9749322631763 62.2208804062506 728.082770323843 0.031025 -0.254692 -0.966524
-35.8891540833742 62.1127799621501 727.373088298768 0.051914 -0.261141 -0.963904
-38.3374471416407 64.7399528093779 729.009574053696 0.027967 -0.234044 -0.971824
-33.798002833793 62.0054113316568 726.66399041871 0.058243 -0.257244 -0.96459
-31.939947795758 62.6506629634439 727.802434885578 0.072798 -0.228659 -0.970781
-30.0872658275021 63.2951827816237 728.940295207431 0.081422 -0.219187 -0.97228
-26.2707268549962 64.2071804732361 730.291660532657 0.063472 -0.241321 -0.968367
-28.5047294459433 66.0791717105583 730.078559433102 0.067942 -0.223986 -0.972221
-22.3322667069381 64.7435998473155 730.719838829435 0.048929 -0.28316 -0.957824
-24.1715160007464 64.1009095631536 729.583438870122 0.052439 -0.262415 -0.963529
-24.4418530694196 66.2427898604023 729.582583338275 0.031765 -0.254798 -0.966472
-20.3630366329091 65.0118095343552 730.933927977824 0.044415 -0.30981 -0.949761
-12.0589208063781 62.1727413529723 732.718577752378 0.032208 -0.318853 -0.947257
-18.5318469437695 65.6534020981063 732.069451719613 0.051481 -0.318075 -0.946667
-16.4245764848511 65.5482289084345 731.362106274602 0.041914 -0.317646 -0.947283
-14.1713851857251 63.6739766457495 731.579770753044 0.03296 -0.327012 -0.944445
-9.93783470905991 62.0645753243305 732.015211541239 0.044788 -0.291174 -0.955621
-52.611362033354 66.129158538896 730.306762404891 -0.149159 -0.275699 -0.949601
-54.5671594329353 65.8627783858743 730.094133619042 -0.361035 -0.280581 -0.889341
-50.4662189083633 65.6467086667557 728.662137941022 0.027928 -0.248466 -0.968238
-56.1765038003724 64.0943473008857 726.163493463661 -0.988687 -0.105509 -0.106615
-48.4076890414087 65.5397715276072 727.947016319536 0.063342 -0.248685 -0.966511
-46.2036212981986 63.6685776884336 728.154385750172 0.063816 -0.238426 -0.969062
-46.343786104675 65.433566202066 727.232478843067 0.072836 -0.252659 -0.96481
-54.6174500005579 67.2453865138364 728.246794249058 -0.165532 -0.277715 -0.946295
-42.2705342199196 64.2042652489058 728.581979901934 0.008943 -0.236448 -0.971603
-56.9934640715644 57.5220370915445 715.72917754418 -0.976329 0.059795 -0.207863
-44.3772425655355 65.7014099823021 727.446275918948 0.046431 -0.24351 -0.968786
-40.3039906807802 64.4721090291418 728.795776977815 0.008721 -0.230114 -0.973125
-42.410699026396 65.9692537625382 727.660072994829 0.018933 -0.228499 -0.97336
-40.4441554872565 66.2370975427743 727.87387007071 0.007729 -0.224171 -0.974519
-36.1435634246862 64.2592668867144 727.372725766303 0.053751 -0.242662 -0.968621
-38.4776119481171 66.5049413230103 728.087667146591 0.030829 -0.211038 -0.976992
-34.0552901919707 64.1539435359115 726.662076378071 0.071912 -0.222235 -0.972338
-36.3975898020461 66.4009314382906 727.374882105169 0.043715 -0.20836 -0.977075
-32.0806870481626 64.4228850365584 726.876749671477 0.08702 -0.21162 -0.97347
-34.4283597280171 66.6691411253303 727.588971253559 0.078901 -0.207675 -0.975011
-30.2278135979306 65.0649936682442 728.015869428995 0.077527 -0.203815 -0.975935
-26.5381859068038 66.3470154907944 730.292356508983 0.048141 -0.234071 -0.971027
-22.4726229953906 66.5109995474419 729.796672486664 0.020937 -0.271906 -0.962096
-20.6385552893853 67.1505468315026 730.933747736626 0.021195 -0.291274 -0.956405
-18.6720117502458 67.4183906117387 731.147544812507 0.042715 -0.296216 -0.954165
-12.0531771052726 63.5678558967982 730.874853033732 0.043921 -0.308465 -0.950221
-14.3119329561536 65.44378753237 730.655344974608 0.04225 -0.29316 -0.95513
5.57444343443768 51.3705964210512 734.531304327249 0.002375 -0.183984 -0.982926
3.1122187386628 53.6573076202383 735.202583916196 0.038659 -0.202702 -0.978477
0.824874201101821 55.5512808662205 734.968820211003 0.036774 -0.213415 -0.976269
7.87617805632662 49.4663967766169 734.772825573309 0.00871 -0.154372 -0.987974
10.0087885537329 47.9508445260067 735.922493129857 -0.017786 -0.184535 -0.982665
-1.45671430272793 57.4411635528216 734.738159522157 0.035763 -0.219445 -0.974969
12.3191572262186 46.0405090425011 736.168668900438 -0.043256 -0.234734 -0.971097
-3.57493471580618 58.9464894049797 733.596249506477 0.05009 -0.22629 -0.972771
-5.53842108872969 60.073394261766 731.538435639441 0.046732 -0.236686 -0.970462
-7.96323156525183 62.3335168249774 732.229884834644 0.059044 -0.257385 -0.964503
-10.0785739614645 63.8367973974451 731.089526327137 0.066993 -0.282811 -0.956833
-16.4243973355007 66.9450228251472 729.516537975275 0.04087 -0.293389 -0.955119
5.09488148713949 53.927346841296 735.418133427125 0.03032 -0.228105 -0.973164
7.39066859332118 52.0296489427366 735.655292221173 0.027091 -0.176413 -0.983943
2.80485041468899 55.8209541804745 735.184077649424 0.023672 -0.209728 -0.977473
9.69221173323406 50.1278604847963 735.895554031568 0.033449 -0.148858 -0.988293
11.9995109068781 48.2219814674752 736.13891885831 0.028694 -0.133636 -0.990615
-1.4373464451987 58.8356964441716 732.897154601716 0.047628 -0.227839 -0.972533
0.683751984745143 57.328325312323 734.04061612557 0.027844 -0.207329 -0.977875
16.4416438518865 40.1577978737568 727.398544909431 -0.699283 -0.2287 -0.677273
17.8161306432172 34.1166457002995 723.898726582815 -0.487607 -0.367963 -0.791734
-3.87328602523108 61.0991777531567 733.584916635556 0.056191 -0.228367 -0.971952
-5.67954330508638 61.8504387078686 730.610231554009 0.058592 -0.262178 -0.963239
-12.3400163472351 65.7123631262132 730.869726195505 0.064782 -0.272272 -0.960037
-14.4524807265821 67.2135984189905 729.730919196172 0.054376 -0.259657 -0.964169
7.07754423561619 54.1973860623536 735.633682938055 0.025663 -0.226112 -0.973763
4.78482662827615 56.0906274947286 735.399335087846 0.025707 -0.208351 -0.977716
2.8295913419973 57.2162188854315 733.343656874 -0.000146 -0.216326 -0.976321
9.37601787668741 52.3000540705979 735.871133804611 0.038229 -0.145168 -0.988668
11.6802475514898 50.3986315194612 736.111687687514 -0.055513 -0.127973 -0.990223
15.7561237940057 43.1566732820392 729.159788993728 -0.56266 -0.134239 -0.815717
0.705614895187864 58.7256352969705 732.198643841973 0.015971 -0.209406 -0.977698
-1.73857577148918 60.9904300720388 732.884270222623 0.046285 -0.237962 -0.970171
-4.01402527763565 62.8713998262712 732.659231421454 0.056142 -0.24799 -0.967134
-8.10397081765639 64.1057388980919 731.304199620542 0.080099 -0.266759 -0.960429
-10.219313213869 65.6090194705596 730.163841113035 0.077631 -0.260221 -0.962423
-12.6264726252455 67.8520479826403 730.86711822861 0.08756 -0.22313 -0.970848
-6.12936767384829 64.3746803987388 731.518872913947 0.074907 -0.257652 -0.96333
11.538550889205 52.1829095250459 735.179705295085 -0.02106 -0.147678 -0.988811
8.88590127180713 54.8529296771342 736.758054050121 0.033739 -0.232881 -0.97192
15.4322590839673 45.357069292162 729.119671393769 -0.477561 -0.168172 -0.862353
4.812254090474 57.4862581064892 733.559206384929 0.016115 -0.211947 -0.977148
6.7648028418633 56.3603008089827 735.614592526267 0.035325 -0.23473 -0.971418
2.85394930535351 58.6163059633767 731.500717227245 -0.025688 -0.223262 -0.97442
-1.87950650586981 62.7650633316474 731.957325572855 0.048396 -0.24406 -0.968552
0.238713907208435 61.2597374794893 733.099235588536 0.030035 -0.235894 -0.971315
-4.31180214113238 65.0168546149659 732.65167685753 0.070503 -0.241151 -0.967923
-8.24471007006095 65.8779609712064 730.37851440644 0.092418 -0.239713 -0.966435
-6.42426652047942 66.5180899077431 731.512869858197 0.080617 -0.231059 -0.969594
-10.6572425512165 68.12025766968 731.081207376999 0.111748 -0.221926 -0.968639
-52.7507609119261 67.8845023065523 729.389893240447 -0.130289 -0.245998 -0.960474
-50.6060007508875 67.4068748074001 727.742749905248 0.05778 -0.214194 -0.975081
-48.6448302815271 67.673986774029 727.955962836113 0.053907 -0.240423 -0.96917
-56.3166686068488 65.859335814518 725.241586556556 0.99838 0.055533 -0.012408
-46.5838053616591 67.5698267281782 727.239873851469 0.063442 -0.234083 -0.970144
-56.8841464923139 58.1883239237192 712.002772664417 -0.947331 -0.038713 -0.317908
-44.6199483574091 67.8373046016106 727.453378854842 0.044554 -0.23167 -0.971774
-42.6560913531592 68.1047824750431 727.666883858215 0.026564 -0.223309 -0.974386
-40.8001484040855 68.7424346405445 728.808814559573 0.02137 -0.223321 -0.974511
-32.4591296539881 66.93735081237 727.803060401948 0.076064 -0.218787 -0.972803
-38.8389779347251 69.0095466071734 729.022027490438 0.035917 -0.217639 -0.975368
-34.6846896763145 68.8056173971149 727.593354391248 0.06233 -0.212718 -0.975124
-36.7645203404093 68.9072160953405 728.307398868335 0.045638 -0.209928 -0.976651
-32.718146137175 69.073461177351 727.807151467129 0.063954 -0.224148 -0.972454
-30.7329760031591 67.9470723884996 729.868561349894 0.068738 -0.221318 -0.972776
-28.7691189989092 68.2145502619321 730.082066353267 0.059346 -0.217663 -0.974218
-26.5514394319011 67.7419798734891 728.445327847115 0.043325 -0.233637 -0.971358
-30.7516025980355 69.3413049575871 728.02094854301 0.060077 -0.234179 -0.970336
-24.582209357872 68.0101895605287 728.659416995504 0.020578 -0.253868 -0.96702
-22.4806949326849 67.9091069302378 727.948968534147 -0.004224 -0.264388 -0.964407
-20.7787200958617 68.915535345135 730.011840829521 0.005194 -0.262693 -0.964865
-24.5931593120319 69.410342223015 726.810161534813 0.012734 -0.247908 -0.9687
-18.8121765567222 69.1833791253711 730.225637905402 0.036988 -0.258532 -0.965294
-22.7533355722955 70.0457989476949 727.950339801122 -0.000716 -0.243994 -0.969777
-16.705289061756 69.0830283086875 729.515773589061 0.057104 -0.248658 -0.966907
-14.7360589877269 69.3512379957271 729.72986273745 0.081933 -0.227779 -0.97026
-12.9125459393038 69.9869104660793 730.867029133045 0.089671 -0.213202 -0.972884
11.2198619797448 54.3523260175498 735.156252431284 0.028216 -0.208314 -0.977655
15.2888390838979 47.163047976193 728.176354080351 -0.576981 -0.176843 -0.797383
6.62368062550662 58.1373452550853 734.686388440834 0.038552 -0.238362 -0.970411
8.57066482514081 57.0130673304655 736.73993100149 0.036429 -0.258409 -0.965348
4.83929858871973 58.886711091238 731.716558810682 -0.036098 -0.228686 -0.972831
2.54696394533181 60.7751301506248 731.484729831804 0.000112 -0.221623 -0.975133
-0.0648189900194751 63.4092828275649 733.088578008265 0.054851 -0.238896 -0.969495
-2.33988553221381 65.2854302088091 732.866058078427 0.073347 -0.224292 -0.971758
-8.53673089982648 68.0193252005203 730.374062858863 0.088431 -0.224986 -0.970341
-4.60919604067698 67.1574870306726 732.646641164937 0.084805 -0.228301 -0.96989
-4.74955232912941 68.9248867307991 731.723474822166 0.086728 -0.231838 -0.968881
-6.56481429090793 68.2879007943636 730.58844407976 0.086915 -0.221886 -0.971191
-10.9460024001643 70.2547542463154 731.080826208926 0.111895 -0.210658 -0.971135
14.7856785557467 49.7433941934433 729.046992807843 -0.604095 -0.216816 -0.766851
14.103605173435 52.6988682448331 730.830906734118 -0.391804 -0.194107 -0.89934
10.9015560342368 56.5169201370657 735.135318438815 0.032586 -0.238447 -0.970609
8.60365683909377 58.4070185693394 734.901645879255 0.021351 -0.24978 -0.968067
6.82464787208596 59.1571162190992 731.932400394119 -0.006026 -0.232932 -0.972474
2.07507285152543 63.3036781465484 732.387256304682 0.005259 -0.234224 -0.972168
4.52962669380851 61.0451693716825 731.700279342733 -0.030154 -0.245805 -0.96885
-0.205558242424033 65.1815049006794 732.162892794163 0.048809 -0.226437 -0.972802
-2.32090063863669 66.6847854731471 731.022534286656 0.063683 -0.221757 -0.97302
-2.62098107307082 68.8250519820502 731.017206521555 0.058406 -0.237018 -0.969748
-54.8459571900796 69.3734659211869 728.260395290155 -0.205111 -0.241581 -0.948456
-53.0733665182243 70.3797631670015 730.335899213399 -0.327753 -0.237452 -0.914437
-50.9343623909169 69.9062262272303 728.685652861852 -0.01954 -0.23742 -0.971211
-56.6292940014931 68.3657050481578 726.183723076878 0.997315 0.073234 1E-06
-48.9785649913356 70.1726063802519 728.898281647701 0.005541 -0.234092 -0.972199
-46.823441654691 69.7012648813022 727.249787731203 0.046679 -0.226623 -0.972863
-44.9646206887517 70.3368717671132 728.393269940734 0.036514 -0.216505 -0.975598
-42.9011007159702 70.23548881456 727.676213592933 0.032629 -0.228613 -0.97297
-41.04765281981 70.8703638867637 728.819111657447 0.019939 -0.226886 -0.973717
-38.9787597772493 70.7697127478177 728.102639454663 0.043609 -0.218107 -0.97495
-37.0175893078889 71.0368247144466 728.315852385528 0.049937 -0.212553 -0.975873
-34.9406366606597 70.9372712959114 727.600256400268 0.06053 -0.218185 -0.974028
-28.9090923234095 69.9771275890704 729.161418881827 0.059175 -0.237305 -0.969631
-26.6917957203535 69.5093795736155 727.522161504344 0.03379 -0.244144 -0.96915
-29.1729074304473 72.1052725809621 729.168704108988 0.048883 -0.236034 -0.970515
-31.1340778998077 71.8381606143333 728.955491178123 0.045147 -0.237375 -0.970368
-32.9767796564097 71.2047491693439 727.813761403641 0.057399 -0.226231 -0.972381
-29.1890389724102 73.5022822433472 727.320123938947 0.046942 -0.233024 -0.971337
-26.9586803262329 71.6419810316917 727.526635787667 0.043012 -0.25004 -0.96728
-22.8936918607479 71.8131986478213 727.027173458352 0.00595 -0.235147 -0.971942
-24.8629219347769 71.5449889607817 726.813084309962 0.013376 -0.240353 -0.970593
-20.9188849023381 70.6805238587675 729.089933922415 0.019901 -0.224126 -0.974357
-16.9857978240591 71.2162114192396 729.517528074177 0.069754 -0.203248 -0.97664
-19.0898073021598 71.3145169562328 730.228943898692 0.041953 -0.219462 -0.974719
-21.0590497088145 72.4455123723999 728.16802701531 0.028906 -0.215845 -0.976
-13.0527107457801 71.7518989797118 729.945122225939 0.093131 -0.190689 -0.977223
-15.1620932936599 71.8494727030978 730.655953905438 0.109879 -0.19182 -0.97526
-53.2123824328443 72.1302845616698 729.421548920286 -0.180849 -0.248938 -0.951485
-55.0740814156492 71.4967229555493 728.276515202582 -0.380544 -0.218071 -0.898683
-51.1678596862655 72.0287514479854 728.701188629264 -0.046622 -0.236223 -0.97058
-56.7690758440173 70.1258711888022 725.264335041103 0.996109 0.027323 -0.083793
-56.9088576865416 71.8860373294466 724.344947005329 0.994008 -0.019556 -0.107541
-49.1179638699077 71.9279501479082 727.981412483258 0.015018 -0.241272 -0.970341
-46.9632234972153 71.4614310219466 726.330399695428 0.067414 -0.223436 -0.972385
-45.0020530278548 71.7285429885755 726.543612626293 0.054059 -0.217258 -0.974616
-43.0408825584944 71.9956549552044 726.756825557158 0.032566 -0.222564 -0.974374
-41.1872431803582 72.6281188409141 727.900983057338 0.034689 -0.218477 -0.975225
-35.08060998516 72.6998486230498 726.679608928828 0.052326 -0.207562 -0.976821
-37.2702753114164 73.1616109605646 728.326824774052 0.056932 -0.206166 -0.976859
-39.2287592458873 72.8948649007393 728.113903915695 0.047789 -0.220488 -0.974218
-27.2251819681602 73.7697601167797 727.53362894232 0.042485 -0.247006 -0.968082
-33.2350302116923 73.3312147883487 727.822890211483 0.044401 -0.215874 -0.975411
-31.1528959766601 73.2348043699147 727.106618935574 0.046225 -0.223079 -0.973704
-29.2055534783252 74.9041142787204 725.469024897575 0.038619 -0.229201 -0.972613
-25.1323015935698 73.6748133255602 726.818525956442 0.026966 -0.241889 -0.969929
-19.2297806266601 73.0770942833712 729.308296427252 0.059576 -0.206576 -0.976615
-17.1259626305355 72.9811999328721 728.595621167072 0.083391 -0.190026 -0.978231
-21.3336109554104 74.5721937370772 728.174143952439 0.045214 -0.226954 -0.972855
-23.4291778648903 74.6667746214931 728.888954865809 0.026593 -0.230182 -0.972784
-15.159419091396 73.2490437131082 728.809418242953 0.09152 -0.186132 -0.978253
-8.82836876563989 70.1558670568461 730.372130182617 0.086382 -0.202635 -0.975437
-6.85913869161088 70.4240767438858 730.586219331006 0.083019 -0.215427 -0.972985
-11.0861672066407 72.0197427599479 730.158919301821 0.096071 -0.181785 -0.978634
-17.4058969469105 75.1071494839421 728.601153959185 0.097784 -0.185673 -0.977734
-11.0783114165738 73.4224567700594 728.311708348686 0.087572 -0.194713 -0.976943
-13.0475414906028 73.1542470830198 728.097619200297 0.086058 -0.189173 -0.978165
-8.96872505409233 71.9232667569726 729.448963839846 0.074984 -0.206342 -0.975602
-53.4904142620844 75.6313273510062 727.59284833406 -0.090914 -0.245055 -0.965237
-55.3018226772666 73.6151576169235 728.29515398634 -0.398067 -0.21317 -0.892245
-53.5338391472861 74.6110783031548 730.37511150723 -0.4443 -0.199457 -0.873392
-49.2573627484798 73.6832939155645 727.064543318814 0.027058 -0.25216 -0.967307
-51.4009740176621 74.1464542957524 728.719243268006 -0.059882 -0.239953 -0.968936
-55.264153825796 74.6394972241558 725.509787796824 -0.119151 -0.256873 -0.959072
-47.202285344319 73.5856356155886 726.344091882158 0.075684 -0.216037 -0.973448
-45.3457679493172 74.2160542216079 727.489800890512 0.035201 -0.228042 -0.973015
-43.2853174753773 74.1191277352391 726.769933598872 0.035907 -0.21958 -0.974933
-55.3154018032989 76.0341612845881 723.656151248512 0.756497 -0.139361 -0.638977
-51.4462744794577 75.53461661031 726.869969171707 0.009018 -0.254823 -0.966946
-49.396761627052 75.4386376832208 726.14767415437 0.064183 -0.247268 -0.966819
-56.7916719845985 72.5558330685262 720.618158907424 0.993652 0.043032 -0.10394
-41.3268335409064 74.3858737950644 726.982854457229 0.030163 -0.212717 -0.976648
-39.3683496064355 74.6526198548897 727.195775315586 0.050027 -0.210826 -0.976243
-37.4098656719646 74.9193659147149 727.408696173943 0.05521 -0.215285 -0.974989
-35.5667809514105 75.5479549867162 728.552944819756 0.049148 -0.211559 -0.976129
-33.4928978030228 75.4528580343655 727.834537890657 0.039313 -0.212613 -0.976345
-31.4136415848562 75.358492895622 727.116715106574 0.026328 -0.216173 -0.976
-27.3651552926605 75.5323374439181 726.61298147088 0.03828 -0.244802 -0.968817
-19.6439199011785 75.5623254989921 730.243112499265 0.075255 -0.197473 -0.977415
-21.6077892380541 76.6940527287664 728.182779760899 0.049812 -0.221673 -0.973848
-13.4781829384106 75.642105230807 729.028163965931 0.097886 -0.190908 -0.976715
-15.5844959874486 75.7352224880086 729.741806589269 0.105437 -0.184694 -0.977124
-9.10908134254477 73.6906664570991 728.525797497075 0.060478 -0.198495 -0.978234
-6.99949498006332 72.1914764440123 729.663052988235 0.057812 -0.22395 -0.972884
10.7602423359041 58.2963757696623 734.205854917717 0.072609 -0.254857 -0.964249
8.63626588909464 59.8057921812012 733.06084188569 0.02273 -0.241416 -0.970156
13.6021679830685 55.257513783637 731.7128803826 -0.082613 -0.237149 -0.967954
6.51228944228519 61.3152085927402 731.915828853662 -0.029883 -0.232152 -0.97222
4.22033776284941 63.198805279139 731.686518746115 -0.007387 -0.213773 -0.976855
1.76904490138405 65.4504464013264 732.377566087568 0.015756 -0.235869 -0.971657
-0.346297494828605 66.953726973794 731.237207580061 0.035091 -0.223422 -0.97409
-4.88990861758185 70.6922864309255 730.800308479395 0.075414 -0.231899 -0.969812
8.49495219076191 61.5852478137979 732.131378364591 -0.010061 -0.245743 -0.969283
10.7953464388184 59.6979264748218 732.364083560994 0.017365 -0.277064 -0.960695
13.4600883568315 57.0466141622098 730.77837911884 -0.190544 -0.289446 -0.938037
6.37097574395246 63.0946642253368 730.986365332564 -0.001157 -0.22032 -0.975427
3.91143179584243 65.3476188136074 731.675277020828 0.00153 -0.239536 -0.970886
1.62830564897949 67.2226684744409 731.451880873466 0.019428 -0.233573 -0.972145
17.489968149466 36.3459759483506 723.84349575487 0.826103 0.544233 -0.146166
-0.649064464152275 69.0936275758934 731.231587742452 0.043471 -0.242502 -0.969177
-2.60237914344582 70.2292296193762 729.171163858452 0.040938 -0.245245 -0.968596
-5.0302649060343 72.459686131052 729.877142136624 0.048501 -0.22502 -0.973146
-7.13985126851576 73.9588761441388 728.739886645464 0.023434 -0.202324 -0.979038
-11.6621550487278 76.2694464212664 730.168232450999 0.088348 -0.191946 -0.977421
13.3180087305945 58.8357145407826 729.84387785508 -0.315566 -0.293493 -0.902375
10.4776149392386 61.8552870348556 732.346927875521 -0.003041 -0.251719 -0.967796
8.18029019002371 63.7381519076472 732.117033622957 -0.023768 -0.218926 -0.975452
6.05919176007988 65.2455230394957 730.973572099103 -0.000332 -0.217941 -0.975962
3.60290879278757 67.4916099750878 731.666554166871 0.007991 -0.239433 -0.97088
1.48756639657492 68.9948905475554 730.526195659365 0.004887 -0.251739 -0.967783
-0.62777599963772 70.4981711200231 729.385837151858 0.040732 -0.258866 -0.965054
-2.90207661392783 72.3646737552912 729.168354964682 0.028362 -0.248998 -0.968089
-13.6181562629109 77.4046825579455 728.107516494491 0.08049 -0.195691 -0.977357
-9.55046892991066 76.177060977672 729.455173972677 0.074701 -0.189296 -0.979075
-5.17062119448674 74.2270858311784 728.953975793853 0.028753 -0.216762 -0.975801
-7.28020755696819 75.7262758442652 727.816720302694 0.026828 -0.214404 -0.976377
8.03916797366703 65.5151963537498 731.188829537525 -0.039937 -0.214956 -0.975807
10.1602664036109 64.0078252219013 732.332291061379 -0.030591 -0.192409 -0.980838
5.74779074015943 67.3915594806664 730.963297736974 0.009311 -0.240572 -0.970587
3.29476875368483 69.63077876358 731.660350184246 0.019305 -0.257154 -0.966178
1.34682714417036 70.7671126206699 729.600510445263 -0.000369 -0.263504 -0.964658
-0.768515252042292 72.2703931931376 728.460151937756 0.025195 -0.279578 -0.959792
-3.20139112045773 74.4952955182181 729.168064942243 0.018693 -0.223978 -0.974415
-5.31097748293918 75.9944855313049 728.030809451083 0.003919 -0.217614 -0.976027
-53.6294301767044 77.3818487456745 726.678498040948 -0.062711 -0.236044 -0.969717
-47.4409642274706 75.7050178362425 726.360302940219 0.060539 -0.244892 -0.967658
-45.4851668278893 75.9713979892642 726.572931726068 0.045676 -0.240192 -0.96965
-43.6338310206905 76.5986735951822 727.719316025071 0.044908 -0.230705 -0.971987
-41.4664239014546 76.1436287492147 726.06472585712 0.028112 -0.221473 -0.974761
-39.6177746291453 76.7705384483292 727.210818083615 0.043537 -0.218161 -0.974941
-37.5494560325128 76.6771208688652 726.490567573834 0.051763 -0.22065 -0.973979
-35.7061798299826 77.3032987543725 727.636075655313 0.045994 -0.227984 -0.972578
-39.6475303275319 78.1681297631903 725.359518115368 0.044364 -0.213409 -0.975955
-33.6324881635711 77.2106129885158 726.916409290548 0.031582 -0.226487 -0.973502
-31.7945850308199 77.8360590604159 728.061333227011 0.026589 -0.231646 -0.972437
-37.689046393061 78.4348758230156 725.572438973725 0.052529 -0.219207 -0.974263
-29.7155202946293 77.7441051081664 727.342251007262 0.015602 -0.232072 -0.972574
-25.5301301767749 76.1598287955086 727.756353899169 0.033706 -0.241318 -0.969861
-23.5689597074145 76.4269407621375 727.969566830034 0.038429 -0.226909 -0.973157
-27.7570363601584 78.0108511679916 727.555171865619 0.028851 -0.242532 -0.969714
-17.8250263272558 77.5868265129677 729.537904757513 0.12012 -0.193679 -0.973684
-19.9204017547597 77.6789962108896 730.253975106548 0.094101 -0.202974 -0.974652
-23.8400684912167 78.5443432876422 727.981013582333 0.049535 -0.223011 -0.973557
-25.6699120192992 77.919994936153 726.836965863394 0.041968 -0.232648 -0.971655
-15.866542392785 77.853572572793 729.75082561587 0.105762 -0.177444 -0.978431
-22.0155980329132 79.1679598255242 729.124477156255 0.064709 -0.207177 -0.976161
-11.8019368912521 78.0296125619108 729.248844415224 0.090567 -0.201158 -0.975363
