ply
format ascii 1.0
element vertex 791
property float x
property float y
property float z
property uchar red
property uchar green
property uchar blue
element face 0
property list uchar int vertex_indices
end_header
6.50248854679558 7.82110876178776 512.746305671148 46 52 45
4.51863709856534 5.4520225964906 515.399048550964 46 52 45
5.30436639969324 6.69380617199838 514.531472972562 47 53 46
6.87153377832658 9.16178407518368 512.795746917544 55 59 52
0.878413263376729 3.52713708972848 518.388270356146 75 81 74
2.94288727268707 2.95286619764487 517.133624809554 61 67 60
2.89953965824367 4.40802249675922 518.100657778962 48 54 47
2.08911051562288 4.68158024477325 516.606372668072 42 48 41
9.38236121454494 5.52704339407044 512.001091383418 69 75 68
6.56612670661937 4.87167803982008 514.137372839052 58 64 57
4.95552146692589 3.83071477238216 516.842497149709 60 66 59
9.31842448899761 8.45684693780291 510.611569134213 40 46 39
10.1590914302144 6.75467744418133 511.130725273521 65 71 64
10.1175908618587 8.19800118897557 512.099590610735 49 55 48
7.76025619582273 6.00301856001446 512.350085720726 67 73 66
8.95152486927782 7.12396624832206 510.562415336924 60 66 59
12.5057882838109 8.93882861693393 510.876427631764 59 63 56
10.9598965300564 6.49251362616564 512.619758750315 56 62 55
11.7335576108707 7.71826932952145 511.748189007408 86 92 85
-4.14521998963579 4.80660764892918 526.042092976796 190 196 189
0.0658703802670004 2.17696102388943 522.585230531887 79 83 76
3.3816186871353 1.31972581921634 518.578905776105 68 72 65
1.34524004576977 0.335363100902818 522.200621666297 62 66 59
4.16928528096767 2.57781850377096 517.710797279276 58 64 57
7.41334855575982 3.15623626944509 514.660576979447 64 68 61
6.21963570477001 2.00786677898723 516.44950483284 67 71 64
21.1192574321138 13.5038002674818 508.76139840949 56 62 54
18.4083503671803 11.4700999056884 509.95162971851 74 78 71
24.9518846643695 16.572673916558 505.759914995118 65 71 64
24.2035821129496 15.3926848585812 506.638844332238 96 102 94
25.6987568079153 17.7474665585913 504.88079402526 61 67 60
21.1497035498166 12.0666740367424 507.787089805443 90 96 89
23.4538491536556 14.2074993846609 507.51758203662 57 65 57
26.0577891843272 19.0517669603836 504.92889384249 67 73 66
26.8025157160617 20.2187649785019 504.049485423525 65 71 64
34.7446478280179 30.4914828447227 506.701585978922 55 61 54
33.2223200281565 28.0953986707969 505.119059439588 62 68 61
34.386330655543 29.1897806509022 506.653581978061 52 58 51
43.2086356549781 36.9252267691641 519.909892612127 86 75 44
43.2475666360429 39.9210660694816 521.8924871368 120 115 84
43.5733896628867 38.2503128347299 519.958758960309 106 97 64
43.3992952694882 38.5612456758575 524.297517104689 111 100 67
43.0810409202287 40.2409520200627 526.233844179937 120 115 84
44.0832510010839 46.1411383560882 531.728391616597 136 131 101
44.0490647935965 44.6082835167589 530.733537291814 136 131 101
37.9167939712027 31.027724499669 510.287080623255 27 33 26
36.3683481890025 31.5487799877342 510.66496215279 54 60 53
39.1015733386376 32.132656699088 511.829932776424 55 61 54
41.1276536904776 33.0390979447773 514.874375798115 39 39 29
43.720410434496 36.8919321635392 522.361573294917 102 91 58
42.8438816470696 35.6001407035984 519.861026263945 67 58 35
42.3301326631059 34.1527020167549 516.424353932973 42 38 21
43.3542260187133 35.56164968203 522.312515313997 78 68 41
43.5235756385344 33.7877323799141 516.986016969728 94 89 69
43.6771587463172 43.2572153714762 530.683712779942 132 127 97
43.5312598466775 35.6838784538396 525.71279472894 91 82 52
43.5575788108572 37.1881530054801 526.706595073665 112 102 67
43.4448583447359 48.047959415397 534.613688832679 135 128 98
44.8343533094578 61.5477208525035 540.741486688417 100 97 69
47.1159921137827 62.1239503916425 539.485028964244 85 83 63
47.4936197925586 63.4958042006988 539.535620007068 96 94 76
48.1973157290265 64.6528144732933 538.638827807543 61 61 43
45.2134113961079 62.9247710775032 540.792269363979 95 91 66
49.3343018424335 61.1170818913466 537.225057871697 82 82 64
46.4101505655036 60.9591454951329 540.381533714662 56 55 31
49.9250542281574 66.7312058182469 535.897093635193 107 111 94
49.9758984453045 68.3153049557934 536.894972103997 64 66 48
53.5854343109968 80.3311001622448 525.254837374849 140 130 113
50.0281730703255 69.9046005092833 537.893042205538 52 54 36
51.1567648830309 74.0045726886221 538.044240435795 50 52 34
51.2126155277374 75.6068592819705 539.042789619182 47 47 29
51.269896580318 77.2143422912623 540.041530435306 63 61 43
52.2853566957363 78.104544867961 538.195438666053 64 59 39
51.0493548172404 70.8155887497556 536.047716967237 84 84 66
51.424121680268 72.1770497269251 536.097924744584 114 116 98
53.9343580241743 78.4975069644718 534.452089186509 118 111 91
54.1523978661596 80.4612114219419 527.717081571817 144 132 115
54.2006798332818 82.0545449058367 528.713031856446 129 117 100
54.4624341174179 82.4381915846763 532.128623624228 141 129 112
52.6575814813026 71.7998424494013 536.678420664228 106 106 88
51.211712177257 67.9373778170529 537.476575840281 92 94 77
50.9454872221706 69.7504700164581 539.424628082928 47 49 31
51.9626763111864 70.6654961873353 537.577183027715 61 61 43
52.7136404451159 73.3936145576179 537.677790215148 84 84 66
52.453137121526 75.2274924207967 539.626608988747 60 60 42
53.1473270877051 76.3592404748909 538.727750808892 57 55 37
51.4807979480918 66.1346784495344 535.52890686311 98 102 85
54.4732112208163 77.0055806031173 535.929802550941 75 69 52
50.0852659763629 63.8452002616292 537.32566505913 71 75 58
49.7097839093982 62.4811410764879 537.275361465414 101 105 88
47.9812399597134 60.3720098601957 540.019365107627 39 38 16
45.3739495359103 59.9935948872551 542.224846809215 90 87 59
43.7927292140913 60.5810117590872 542.58248833332 110 105 75
50.7837471661644 64.9925375635534 536.427381777489 73 77 60
52.3378521591179 64.3993282640294 536.058183005134 62 66 48
-26.5527700587351 13.9005719594021 551.957389980464 192 198 191
55.0479016824223 80.3391031354617 529.236235996841 145 133 114
55.5776377211157 78.869683397209 530.707973176013 145 133 114
42.5165209308879 51.7187879595438 539.440690697466 124 117 86
42.8107569120104 49.9703697225361 537.499560946975 130 123 92
42.5600047895573 53.2854195025051 540.436790635046 126 119 88
42.6049190561009 54.8572474614098 541.433082205364 123 117 83
49.443669373492 56.6469771971824 537.655750826831 79 77 57
48.3663384161472 54.1140751851265 538.504071800444 70 68 44
48.742535687049 55.4807325782395 538.55447121053 48 47 25
46.1420084902762 55.0805308434137 540.764821280738 88 83 53
49.4949302288525 58.2140473644654 538.655270030701 69 69 49
46.8986942557022 57.8294348774698 540.866194999123 76 74 49
51.3210797083155 63.4672731228887 537.907268795415 85 89 72
50.9455976413508 62.1032139377474 537.856965201698 102 106 89
50.2473247706561 60.9473621506912 538.756068850873 78 80 62
49.5476214920872 59.7863139476918 539.65498086731 62 64 46
43.0317522250429 57.8165184772009 542.48053971672 113 106 75
46.9504619958931 59.4076177378562 541.864989651829 45 44 20
46.1923458225929 56.6535172878568 541.763424300706 82 79 51
42.6512637305186 56.4342718362578 542.42956540842 116 110 76
44.6645319679458 58.815798950887 543.120872477788 98 93 63
43.0802425112718 59.4013374759641 543.477310368883 118 111 81
44.2840434734215 57.4335523099438 543.069898169488 106 99 68
53.0318338061901 65.5395908032552 535.158504457745 93 97 79
53.4051702613437 66.8958553644814 535.208520602355 95 97 79
53.141507556282 68.6997132175382 537.158501029176 70 72 54
54.5251796268041 70.9646490481599 535.358569036185 99 97 77
54.1518431716506 69.6083844869337 535.308552891575 54 52 34
54.2658081453649 72.7840961490469 537.30912436122 114 112 94
50.6794831054446 56.2690500584419 538.237354563115 101 101 83
50.7330978917231 57.8354003645082 539.237981583626 100 102 84
49.3341079727989 55.4962749882458 541.037446351567 51 49 29
45.1047936910222 54.092754849329 542.60958347762 103 101 59
50.7881430858758 59.406947086518 540.238800236875 80 84 66
46.6305521804748 51.9508202257505 541.249482565199 100 93 62
48.2012249364711 51.3807135610768 540.885673223096 79 76 48
46.6818130358353 53.5178903930335 542.249001769069 86 84 52
44.7250204004351 52.7131064163575 542.558704985689 110 105 67
52.5011330421784 61.5152010541666 537.487958062081 84 86 68
51.4854924335267 60.5687151507341 539.338780403798 56 60 42
43.5724802936459 56.2479617496607 543.965636388954 117 111 77
52.875899905206 62.8766620313362 537.538165839429 106 108 90
53.5689580292345 64.0228408477222 536.637571108137 60 62 44
53.943009688325 65.3817036169199 536.687683069116 86 88 70
54.6911130065062 68.0994291553157 536.787906991074 84 82 62
54.6339222005422 66.5200878093909 535.786800888718 112 112 94
53.6936587153146 74.8481255596229 540.210428358313 71 69 51
54.0705711901535 76.2173811607075 540.260923584768 66 64 46
55.794804130305 77.6363314835134 533.131279394775 117 109 92
55.7043170909329 76.6290931868101 536.509190653944 108 102 85
56.2648839670309 79.9669348864544 529.808977200001 133 121 104
54.738311987062 82.8175190962159 535.550862291853 131 119 102
56.7969739366424 78.496795286985 531.281822195813 153 141 122
57.1674495760476 79.8426670163244 531.331455074947 136 126 109
57.0188482076676 77.2620036508561 533.707344047857 132 124 107
58.0163101521689 78.1239071767611 531.855671215614 166 154 135
58.3867857915741 79.4697789061005 531.905304094748 143 131 112
58.9252223500025 77.9948815150094 533.381376724113 148 136 119
16.446967942434 10.630099502947 510.262302955613 60 66 59
23.0926711654324 12.8954043589537 507.469194770283 42 50 42
19.6065012044448 11.1036905464143 510.515508388545 72 78 71
26.8804301287538 17.3860962278337 505.436917978812 48 56 49
27.2394625051658 18.690396629626 505.485017796042 74 82 75
27.5984948815777 19.9946970314182 505.533117613272 48 56 49
28.7589294892787 21.0760879716651 507.067161069899 56 64 57
28.3991819089297 19.7691893619012 507.0189654363 55 61 54
29.8777888408525 22.100868427061 505.25552569907 50 58 51
24.6425842672481 13.8439694702534 508.077029440093 56 64 56
25.3899632956241 15.0298748053903 507.197183919071 56 64 57
26.5213977523418 16.0817958260415 505.388818161582 72 80 73
26.9368072625848 15.976561569935 507.803814955872 65 73 66
26.5763444782987 14.6670647521994 507.755523505904 64 72 65
29.2234615803372 18.1002005601631 507.528001572894 57 63 56
30.3208738996667 20.5762567716952 506.693465337606 69 77 70
27.6796867482316 17.1553921423734 506.922574169102 54 62 55
29.9618415232548 19.271956369903 506.645365520376 62 68 61
28.0394343285806 18.4622907521373 506.970769802701 43 49 42
23.8937748309979 12.6528677191731 508.956683328378 54 62 54
28.4836512295454 16.9232483344797 508.410445992673 52 58 51
31.4343101854674 21.5998787415528 504.879518517127 44 52 45
32.4903769206726 26.9470267328021 506.002557839427 50 56 49
17.6474727106166 10.2629702824562 510.82728944229 58 64 57
14.1139780361319 8.458658133158 510.521606762147 62 66 59
16.8851646461787 9.05064424328069 511.702757533332 61 67 60
16.0822139345254 9.30501343738128 510.213436607431 64 70 63
21.5874836153477 10.5042477473396 509.225903648095 57 63 56
22.7314931772092 11.5833093332463 507.420807503945 62 70 62
19.2424624004734 9.78120268882024 510.466737856732 68 74 67
26.2158816940126 13.3575679344638 507.707232055936 59 67 59
27.3616324964998 15.8684478689617 510.223243016724 45 51 44
38.2877838327044 27.9547802233485 507.382600905164 39 45 38
39.8202425601747 30.3505831603794 508.969654527428 36 42 35
41.0012375888175 31.4510388050717 510.51120723122 52 58 51
35.2186489776237 26.0764334682994 506.178967895638 45 51 44
44.02542780955 33.7462045260522 519.43399093712 97 90 60
43.506371290372 34.1848003181424 524.719186016954 91 84 54
42.6529029782288 29.579363731772 512.516007704024 31 37 30
43.0211796709473 32.3537233572509 513.553242986892 45 44 30
44.007899611722 32.2645939849404 518.442160756357 70 66 42
43.1387564667152 32.8493214206899 524.669936403296 67 63 39
44.2075608536218 31.99091330406 514.111582573725 71 68 48
43.4608854013836 31.2022332945784 522.732543491195 66 62 45
42.9027364639564 39.0352152814399 529.58968851326 113 103 68
42.6255217958316 42.2541313664561 532.523372995679 137 130 99
42.2521853406781 40.89786680523 532.473356851069 123 116 85
45.0334792520102 30.3186064331335 514.62163071059 67 63 53
43.0947009856008 29.8719508130692 522.683485510275 60 57 41
43.4211211438917 28.2404519347879 520.746667496387 103 100 94
39.4647492917069 27.5948496150242 507.936509225435 45 51 44
42.5338841467875 29.4731963700732 509.140142234961 28 34 27
42.8914861153253 30.772300355922 509.188050419453 32 38 31
32.2364276206936 21.3795674879791 506.365557972893 59 67 60
31.8960717073943 18.6417401615308 505.337610468414 67 73 66
31.8781104482187 20.0778652941587 506.317553972032 67 75 68
33.7740641830889 22.3206192122587 506.968578110666 39 45 38
33.0432529177557 21.1578165119722 507.85381306194 56 64 57
15.3168367352325 8.09080905145057 511.087701065464 51 57 50
20.8327442284941 9.30087481761755 510.103970637894 87 93 86
23.9202282908017 11.2197794188388 507.980254907419 62 70 62
22.7809265907762 10.1392781104987 509.787566684849 49 57 49
26.9997393043395 14.5537546352827 510.174759934018 50 58 51
18.0880233452793 8.68279516157326 512.268851836649 62 68 61
25.8554189097264 12.0480711167282 507.658940605967 48 56 48
27.0200544944332 13.1169096414383 509.19592424704 58 66 58
34.503445040548 23.4782254966018 506.083151526653 38 44 37
33.0574298381391 19.7172148246177 506.872570108943 52 58 51
33.8547860766538 20.934625813532 509.344283784269 43 49 42
34.5839586150062 22.1007465830068 508.458036832722 55 61 54
12.9411241718073 7.34898052538072 512.316498944006 62 68 61
16.1214261738666 7.83312178816168 512.578033991636 50 56 48
10.5922817063995 5.15703472871306 512.570509136657 62 68 61
14.5500291280653 6.87140824957655 511.961773890758 74 80 72
32.6991126656642 18.4155126307972 506.824566108082 58 64 57
31.1614761032689 17.4744609065176 506.22154597031 49 55 48
33.8658938621822 19.4921457794225 508.361837198262 40 46 39
36.4997739900153 21.4592602941044 507.143059982703 67 73 66
33.8784320555848 18.0548621612562 507.379582244994 38 44 37
35.0475671830207 19.1307754486649 508.917961151814 53 59 52
35.774385790455 20.2976160793563 508.030606383627 63 69 62
42.3357632112129 48.9564074234836 541.817818873769 132 125 95
42.9620876472474 47.0335584920228 538.928527493183 133 128 98
42.3816010008003 50.5223191052282 542.81502662799 125 118 87
55.4392163246873 70.8171546937114 536.888130913032 81 79 55
55.3805951108492 69.2326169318431 535.886833177938 68 66 46
55.1852679090212 72.6377602801369 538.840997687717 118 114 90
52.6662609713267 58.6192412899838 538.919565486833 101 103 85
53.4172251052561 61.3473596602663 539.020172674267 88 88 70
53.7927071722208 62.7114188454076 539.070476267984 110 110 92
52.4055771545033 60.3968358264288 540.873114832896 62 62 44
54.4841265692683 63.8609157309818 538.168869536421 77 79 61
54.5436713061502 65.4395372156901 539.171083455417 88 90 72
55.2336602953235 66.583837685321 538.269285091116 119 117 97
55.2946354400796 68.1676555859725 539.271690642851 101 100 78
42.2483788556605 45.8401733078245 539.823978263542 132 127 97
44.9381595568553 51.3260551459688 544.993358553766 92 85 55
43.3023106790973 50.3248963255277 544.351822159688 113 104 73
43.3526480114139 51.8978827699708 545.350425179656 115 106 73
42.0956489011993 52.2822886596611 544.758851093607 123 114 81
52.290778904362 57.2551821048426 538.869261893116 109 111 93
48.6324674015255 54.3189176761995 541.936891286431 95 92 76
48.2541245188125 52.9444656591714 541.886204427238 103 99 82
49.9350959822208 55.5089379533855 543.524852759167 53 53 35
42.859486705996 55.0571747734341 544.861182975682 116 110 75
42.4775678035977 53.6697317165477 544.810017034645 124 116 81
49.1769798089206 52.754837503386 543.423287408044 98 96 78
49.2343789339914 54.3256643641791 544.425213877933 67 65 47
51.2748397299867 56.2890690231749 540.721629153531 84 86 68
55.6701175070444 69.5317147711138 539.321994236568 78 76 52
55.4208769532142 71.350880635106 541.277076644534 76 72 47
54.9341803091033 74.4687586984491 540.794247727878 80 78 58
42.3946072370735 37.9750477126867 533.89716757955 118 108 73
42.2068322896955 44.2898508739101 538.827345407535 127 122 92
8.30114745021214 0.00338703143587793 514.213999598726 72 78 70
9.01474639088806 4.19156449661786 511.951841769761 69 75 68
9.85705205908573 2.48607693380792 512.472009909341 69 73 66
10.6328587517113 3.71962726107883 511.600727615541 71 77 70
9.07981495858601 1.24733019059359 513.343100570402 71 75 68
11.4345873745972 3.45154716590311 513.090677276237 85 91 84
3.82362755554547 -0.320050697588869 520.026210743199 65 69 62
5.02306203803187 0.849104456642571 518.238049420757 72 76 69
11.3610019615579 6.33531521062506 515.032839217226 60 66 58
11.3970794641404 4.89083298029239 514.061662430363 102 108 101
11.0669725509403 2.11606826845054 513.041427662579 66 72 65
12.5756303152484 5.96386682283438 515.604472603745 61 67 59
3.44957589645489 -1.67891346678672 519.97609878222 50 53 49
6.69894416453008 -1.06268106707552 516.925004278275 69 75 68
12.609353886913 4.52010445371836 514.632188000242 74 80 72
12.2768930427949 1.74605960309316 513.610845415818 110 116 109
13.8216283096856 4.14937592714433 515.20271357012 58 64 56
11.8375398521864 3.28251619604244 515.505590110953 79 85 78
13.790258668939 5.5924184350437 516.176105990265 71 77 69
15.3562572936804 6.61040291709926 513.453118817202 58 66 58
10.2920893813586 0.87660166401956 513.913626140282 71 75 68
17.7225541334336 7.35511088803571 512.219889672098 71 77 70
30.0477412517446 16.4312117584249 508.037037709487 68 74 67
28.5699675962489 14.0654747527381 509.803758916851 65 71 64
29.3095696279339 15.2509414635532 508.920494129538 45 51 44
20.0765744337664 8.09230547195204 510.981845994955 56 64 57
21.2747252710309 7.72589611267791 511.545724664991 57 65 58
22.0285411348407 8.93518531956006 510.666741491289 44 52 45
25.4949561254403 10.7385742989926 507.610649155999 81 87 79
24.3610774911879 9.65923147619097 509.42027238308 70 76 68
26.65887650621 11.804814615731 509.147536980703 55 63 55
19.3189742311645 6.87853971034313 511.859529719278 62 68 61
23.2243380411872 8.56949582150256 511.229512344684 48 56 49
20.5194789993471 6.51141048985235 512.424516205954 64 70 63
28.5886440593616 12.631947828082 508.823911229602 57 65 57
32.3407954931893 17.1138104369766 506.776562107221 53 59 52
31.6071234121078 15.9406149048034 507.66141379302 62 68 61
16.563823854617 6.24111411295853 514.0214287538 54 62 54
18.9542202232559 5.55345364477732 511.810663371096 63 71 64
22.4728761082955 7.35948675340378 512.109603335026 55 63 56
26.6813373081148 10.3757642458017 508.168988742832 63 69 61
27.8677184907894 10.0129541926108 508.727328329665 41 47 40
28.2281812750755 11.3224510103464 508.775619779633 79 87 80
25.9365205297636 9.18062456431642 509.050762448029 83 89 81
29.7587027098414 13.7019448383305 510.363206320325 62 68 61
30.8720209231521 14.7622229566868 508.54607384608 50 56 49
25.1902733435382 7.98028846688778 509.932344520488 52 58 51
21.3311302307352 6.25156364291342 513.918172582048 56 62 55
15.4022327600521 5.11672450599458 515.822584570026 52 58 50
15.0339027324582 3.77864740057031 515.773239139999 60 66 59
17.7994826023383 4.43541893929515 513.614322269711 51 57 50
20.5466476630879 5.0809203974897 511.448183601364 81 87 80
13.4532982820917 2.81129882172006 515.153368140093 72 78 71
24.4425957494386 6.77475595351572 510.813734960208 79 85 78
21.355229759621 4.81919520379575 512.940636344449 52 58 51
27.1252556433561 8.8170946499089 509.610209851502 47 53 46
17.0375911761139 3.20606392985606 514.49143109582 54 60 53
19.7899709835299 3.86123835872076 512.32678350959 75 81 74
26.3813623880487 7.61603869126358 510.492899740602 47 53 46
23.3069881415886 5.67058953653547 512.624711473249 63 69 62
32.0707319801224 12.9706437704614 508.121338112111 44 52 45
29.41456245775 10.9596409571555 509.333959366467 77 83 76
29.0540996734639 9.65014413941989 509.285667916498 57 63 56
29.7750252420361 12.2691377748911 509.382250816435 59 67 60
32.7887967329463 15.5792445740458 508.217537746571 63 69 62
32.0560481749086 14.4001327647125 509.103305616273 53 59 52
27.9343446247195 8.5664821493184 511.101938043422 46 52 45
33.5201148831099 16.7531599674357 507.331578244132 50 56 49
34.6994342730303 16.3925094978948 507.886594381044 59 65 58
35.4269680844018 17.5619483365579 506.999335429226 45 51 44
25.6360387248671 6.4097863166749 511.375397996963 73 81 74
20.6001918070439 3.59619509583849 513.820248252946 65 71 64
19.0318638960977 2.63635990400843 513.205191785078 79 85 78
13.0849682544977 1.47322171629578 515.104022710066 77 83 76
11.0994493891243 0.60116556925049 515.406707618161 107 113 106
13.8680204142709 2.63866854577613 517.573820058012 60 66 59
36.9537051803756 19.9369656098153 508.585622520539 55 61 54
37.3120223528504 21.2386678036359 508.6336265214 50 56 49
38.8496589152459 22.1797195279155 509.236646659173 55 61 54
33.9704700537848 15.2178742432882 508.773661700123 37 43 36
33.2400754266651 14.0380425727383 509.660537386465 32 38 31
36.5953880079007 18.6352634159949 508.537618519677 53 59 52
44.1872251749211 29.0626274110067 512.131479274645 60 61 55
44.3250754537064 29.1630358829723 515.516207276833 72 69 62
42.6415663849864 26.6652273641156 510.53869493644 51 57 50
43.3532476372521 27.8141617759001 509.64614237074 45 51 44
43.4691604220971 26.4540266074223 512.035279640185 57 63 56
44.1792029473819 27.6062790883951 511.141715074213 62 66 59
45.2454170333303 30.0524391392734 510.295867059995 72 73 61
44.6612099013927 27.5482847380596 513.58227561081 98 100 92
43.9520908991519 26.3901159799267 514.476756360685 69 73 65
42.6380437001765 25.2159538042025 509.550326001755 53 59 52
43.1101280456851 25.1497262056301 511.987179822955 65 71 64
43.7348112128074 25.1540444563283 517.817869648787 72 74 66
43.403384626957 26.7673558788078 519.754016948091 76 75 69
32.647431349007 93.4373037118148 552.591060370529 108 99 78
43.7230766439568 90.1774743408789 547.796536212707 100 93 73
45.3166013310692 89.532773044201 547.449260160638 108 98 79
42.7837716632958 90.3073437133149 546.257249455415 93 87 70
39.1946328239767 92.5066188397495 552.248704502601 77 73 57
56.9354229610495 76.2526057705028 537.088578756947 102 94 77
55.6236624134464 75.6019464749766 539.893173914742 76 72 55
57.9317530634002 77.1289400586995 535.235169373268 127 119 102
58.9867043795889 79.5898121087644 534.383057724683 154 142 125
55.028313442214 83.1925274404557 538.979747859321 124 114 97
55.4861433215927 72.9502877835878 542.280057094483 118 114 89
55.5528400978454 74.554891348013 543.283229177169 77 72 51
56.2413986791446 75.6939954017005 542.38123918013 69 64 44
58.2317951995446 77.4755255026774 538.670947309899 128 118 101
57.5475278418679 76.3520106968201 539.573512205152 108 100 83
59.5307723228972 78.1075587180801 535.862262171231 137 125 108
58.9813289255999 80.1984474570166 538.771362864595 140 128 111
55.9551335643478 83.0636591661307 540.513399717042 126 116 97
43.2059272380864 47.1945126844717 542.355191017966 119 112 81
42.9211069806359 48.9400514766128 544.300752035019 112 105 74
41.4916930902345 43.0912692737685 539.722604545156 134 127 96
46.5189632404606 50.7556672444002 544.634076294594 70 67 39
46.1384747459363 49.373420603457 544.583101986294 94 88 61
44.556955858394 49.941210297054 544.942288429097 107 100 70
48.7979217222705 51.3777872783863 543.372504732482 89 87 63
54.9680526442477 60.7607864991189 538.648949901369 98 96 78
55.0285209041734 62.3334917066671 539.652080004268 103 101 83
54.2775567702439 59.6053733363846 539.551472816834 71 71 53
54.7768361728085 64.125235768509 541.608419881826 62 62 42
53.9020747032792 58.2413141512433 539.501169223117 121 121 103
54.528012257192 65.9273726622376 543.565143024859 89 89 69
54.906355139905 67.3018246792657 543.615829884052 119 118 94
55.2635328169195 61.0073577051659 542.091248798481 82 79 58
42.3286789996333 34.9367598361786 531.906201460392 96 87 56
42.3609279144162 36.4533055664609 532.901588703602 115 104 71
41.6142550041093 33.7407764440086 532.801556414382 74 70 46
41.7518331104862 39.8381378607985 536.78425518365 120 110 75
57.1066465250753 73.9420548702536 542.915575323512 73 66 43
58.0999977391876 74.8446524750622 541.058597020592 80 73 52
54.9732602352643 68.8979137585591 544.619822334272 107 105 81
56.1104344952146 73.0290644335584 544.772170360957 100 94 67
59.0904881375517 75.736857247984 539.201235452195 123 111 92
59.4652550005793 77.0983182251535 539.251443229543 129 117 98
60.1457380194639 78.2173564762842 538.347578884912 140 126 107
-23.4610969432407 12.978001602241 552.299769043224 144 148 141
-21.7546767038212 15.616382205201 553.943411683135 200 199 175
-23.8734151014436 14.5924168176046 557.531904930906 218 220 212
-21.777818114793 17.2005716542568 554.908396938411 181 182 146
-19.6165252862529 18.1456356258129 554.677600581993 124 123 107
-19.1131683156113 16.3856887570106 556.162445375504 180 178 168
-20.7876906765579 15.2515950889545 558.847119781794 127 127 119
10.3317429036265 -0.554889526454616 512.942928435263 84 90 82
9.55542932617067 -1.79955254682898 513.814935280227 60 66 59
5.91598543253374 -2.32221347406342 517.795328408385 56 62 55
7.54944346763241 -2.78475897582721 517.450232419213 76 82 75
11.5416633954811 -0.924898191811991 513.512346188502 62 68 61
11.541756823258 -1.01898376931954 516.852467666557 47 53 46
10.3613589260623 -2.08018505754145 515.307825125369 57 63 56
11.9115172587261 0.324289752048124 516.902004729322 99 105 98
6.73583347998667 -2.7208779078185 522.636531550123 78 84 77
9.15204192797486 -1.91537651746265 521.420291063308 58 64 57
14.7152422634113 0.923226775401147 518.097024198407 68 74 67
15.8778471276368 2.069841768572 516.294419279851 50 56 49
12.328086436993 0.13982692178412 519.324289015046 82 88 80
13.8977513280365 1.19894410706512 516.599415637596 72 78 71
17.0901215504093 1.69911324199798 516.86494484973 74 80 73
11.5559738365428 -1.11738851412699 520.199236044455 52 58 51
13.9476292056904 -0.326913897811508 518.973366493564 76 82 74
15.9322245480199 0.551058526393824 518.669765401567 62 68 61
-2.36276322905275 -0.308276270158466 529.492919794864 178 179 175
-5.79193646249308 3.62347518752789 532.075356271995 197 203 196
-4.49218686928208 1.74465864225284 531.702987226033 138 142 135
12.7800179139054 -1.49171634678426 520.775300697537 37 43 36
15.166965421217 -0.699802008035483 519.547215513365 45 53 45
27.1920900963929 7.36210812148472 511.985639932793 34 42 35
26.8294817002956 6.04481667983407 511.937061033718 42 50 43
24.5051389788531 5.30418017726134 513.188590143285 65 73 66
22.5557345278036 4.45206598330495 513.505622831125 58 64 57
30.9768054338614 10.4794369354208 508.958718715475 65 73 66
30.6170578535124 9.17253832565686 508.910523081876 50 58 51
31.3365530142105 11.7863355451846 509.006914349074 67 75 68
33.2524053009609 12.6092734397038 508.677462065663 37 45 38
29.8800180718523 7.9778372684934 509.795716053363 59 65 58
32.1477876073851 11.5435176685093 510.498929990101 49 57 50
31.4138169605801 10.3506949581009 511.385326594597 54 62 55
38.491341742771 20.8780173340949 509.188642658311 40 46 39
40.3882723355605 21.6785724549803 508.852693128008 56 60 53
42.2804417316387 23.9168498183536 509.502417817263 50 56 49
41.9259544454451 32.0743423765568 530.861181338048 67 63 46
41.4515769321436 41.5461432557974 538.726163321887 128 121 90
41.9228397631009 22.6177458325048 509.454509632771 76 82 75
44.2918013665237 24.7883558748724 512.543303776507 77 81 74
42.3920632928612 22.5411254020456 511.890980188494 61 67 60
43.1042514299572 23.7011725069336 510.997703071629 52 58 51
43.9327689901117 23.4840554730803 512.495203959277 64 68 61
41.870039063124 29.0724294116525 528.871556648056 98 95 89
41.5540483981657 30.7232742312741 530.811356826176 56 53 37
41.154899863663 27.8738478115108 529.766815785677 72 71 65
43.3642295194607 44.2274002069415 543.789846300327 112 106 72
42.0227068694419 41.5059648128597 541.204814869526 124 116 81
42.4463806569121 44.4352158185289 542.253434034104 120 113 82
42.0666073663249 43.0555673855575 542.202555542174 122 113 80
49.8769739999033 46.3249129544085 540.951981937913 70 68 48
49.1231490502256 43.5864017522393 540.850991485003 72 71 47
49.5000615250644 44.9556573533239 540.901486711458 51 50 28
47.6607474623203 47.2466366033871 543.220156705797 75 71 46
49.9317206283324 47.8768324981831 541.95434550986 110 108 90
47.2816893756702 45.8695863783874 543.169374030235 68 65 37
46.9026312890201 44.4925361533876 543.118591354673 91 86 56
42.4924267656063 45.9926130151417 543.251462155859 121 114 83
53.2094332174644 57.0781063645939 540.403404689476 99 101 83
51.5617374554135 56.5044617335615 544.162778254216 77 77 59
50.5454997153148 55.5187214736586 546.016690433329 53 53 35
54.8237981512368 58.0661167577497 541.036515652487 93 91 71
54.1327953924029 56.8995909019119 541.939763119117 99 99 81
54.8866203420806 59.6381021040812 542.040753572026 80 78 58
52.8093208419562 56.1229352887377 544.749921073703 60 60 42
54.7046112752066 63.0081864137364 545.003834451512 102 100 80
54.77243989361 64.5983592158698 546.008743085635 96 95 73
52.1140268594999 54.9408201850698 545.652593642119 51 51 33
49.8457061901292 54.3295316072922 546.917967735998 67 67 49
55.041595738498 70.499199253796 545.62400641723 87 83 58
55.4213690290852 71.8788476867674 545.674884909161 91 85 58
59.6436732388084 74.2320972341978 540.686416084004 112 101 78
60.0191553057732 75.5961564193391 540.736719677721 125 114 93
58.6557450904692 73.3306581149276 542.545705836575 94 84 59
57.6649561263816 72.4188261637707 544.40461232367 71 63 36
60.3946373727379 76.9602156044803 540.787023271438 125 111 91
60.4667572147636 78.5659776544439 541.792506803774 133 119 100
56.26867432868 83.431468898204 543.953363450915 135 123 104
58.6897839670351 81.046344849546 544.12269847598 138 126 109
59.2147698957126 71.8100276164164 544.034838653101 112 102 75
60.5040049037964 72.490110910316 541.217716226571 115 105 80
61.1826408765932 73.6209817157667 540.312019514135 125 114 91
58.5318426992933 70.6635675631355 544.939960467323 91 82 52
56.3636528979844 71.7227149977192 547.217740585694 110 103 73
61.859846441516 74.746656105274 539.40613116896 137 124 101
61.9321746026485 76.3439036701058 540.412435068831 133 119 99
50.4245631954633 52.3733110585623 544.010430227531 96 96 78
52.051204668656 53.3688348387383 544.648355722579 118 118 100
53.7437374675476 55.9382223120008 546.291722770178 68 66 48
54.1235107581348 57.3178707449723 546.342601262108 98 96 78
53.9917281067371 54.170143358799 544.33171815701 63 63 45
54.1915476956449 58.8995290619739 547.348330263765 85 83 63
-25.9978751305627 13.5476657662346 561.119631647724 147 151 144
-22.0425500796693 13.9923463663983 560.618346282528 208 211 208
49.6664470221631 49.6192106085628 543.908864876407 60 58 38
44.6165207678393 43.8444340396845 544.379204753095 116 110 75
47.7152857716427 48.8070706322934 544.22169991021 61 57 32
48.0950590622299 50.1867190652649 544.272578402141 48 46 21
45.3774977568878 46.6089273215707 544.481153369695 106 101 71
42.9837410249364 42.8451535659985 543.738871992027 120 112 77
44.9970092623636 45.2266806806276 544.430179061395 114 108 74
43.7945484614714 47.1715205992243 544.840148179759 111 104 73
43.081971512035 45.9637046527343 545.737335501555 113 107 73
43.8458093168318 48.7385907665073 545.83966738363 110 103 73
45.4303973392293 48.1726794196654 545.481684573837 107 102 72
49.7247696702777 51.1841211921959 544.911707530199 80 78 58
46.52357320237 43.1154859283879 543.067808679111 107 102 72
51.9898128856864 51.8020459083501 543.644309435778 109 109 91
50.9747069877384 50.8018748861554 545.499958166327 78 76 58
55.1708579175561 52.2239875672372 543.911491239773 115 115 97
53.9279823928495 52.6040742896276 543.326564053567 115 115 97
53.5503547140736 51.2322204805713 543.275973010744 107 107 89
50.8547842375474 47.678689857266 543.492248858199 94 94 76
50.7969684742631 46.1248919667363 542.488681653242 56 56 38
50.5949336971512 49.422226453184 545.449079674396 68 68 50
52.4174716777457 47.1166590534022 543.124199882272 100 100 82
54.7932302387802 50.8521337581808 543.86090019695 113 113 95
52.1616137952484 48.8561577189153 545.083150515381 87 87 69
51.9086167284994 50.6060492163151 547.042484413966 64 64 46
62.0413338146002 71.8823134610733 540.842307656431 120 107 84
61.0621061859959 70.9753966889648 542.705932859195 117 106 83
62.4161006776278 73.2437744382429 540.892515433779 130 117 93
62.7908675406555 74.6052354154124 540.942723211127 139 126 102
54.6139014944212 54.176327572989 546.829094914375 104 104 86
53.7882552684412 49.8516814990912 545.72107601043 71 71 53
53.7235860315097 48.2915287070798 544.715005723085 105 105 87
55.0358386549838 49.4701550542675 546.308218829917 71 71 53
54.0612362949086 56.1442568265709 549.74727348719 69 67 47
53.9499938918891 60.6909918869209 549.309197224253 89 87 67
54.6422187394905 61.8712286438338 548.405321022828 77 74 53
50.4193407954872 44.75303815768 542.438090610419 65 63 43
50.3636706440142 43.2070348910654 541.434810854569 107 105 85
52.0398439989698 45.7448052443459 543.073608839448 57 57 39
51.343327927746 44.5489792396028 543.97691014266 78 78 60
52.9669002660836 45.5426246730237 544.6136320047 63 63 45
53.9754512561081 46.5560679719718 542.753935273064 89 89 71
48.7462365753867 42.2171461511546 540.800496258548 83 83 57
49.9867581691754 41.8377792899808 541.384315628114 117 116 94
52.5885573833706 44.1681726559957 544.562945145507 97 97 79
51.2845886414179 43.0010976262332 542.972426753801 111 113 95
55.2159728498967 46.176701110798 543.33775464263 94 94 76
54.8390603750579 44.8074455097133 543.287259416175 57 57 39
55.2808504059349 47.7283394176776 544.344645297508 114 112 94
59.7770721549179 70.2827609795284 545.52599547017 120 110 83
61.968156135523 76.9173561302513 544.822130010602 134 121 98
20.2347225951983 2.268510822301 513.771286088395 73 79 72
28.3855330718215 6.99713848464388 512.547302969547 46 52 45
31.0526389723569 9.03859993239352 511.33693932826 44 50 43
24.1411001748816 3.98169231966729 513.139819611472 46 54 47
26.0850815601579 4.83264802808531 512.820475473981 56 64 57
21.8030505061444 3.22834601413106 514.386342556263 58 64 57
34.7931109982113 13.5522035107384 509.281685836445 49 55 48
36.2463315748665 15.9029137423848 507.505335565005 58 64 57
34.8038021455262 12.1267524468923 508.297598515371 66 72 65
35.8887296063287 14.603809756536 507.457427380512 66 72 65
38.1330245702961 19.5763151402744 509.14063865745 40 46 39
37.7747073978212 18.2746129464539 509.092634656589 47 53 46
37.7808990024068 16.8420871199093 508.107152069768 55 61 54
28.0229246757242 5.67984704299322 512.498724070472 61 69 62
33.3341687900597 11.1807076153184 511.057269576934 51 57 50
30.6914609841337 7.72650490668626 511.288552061923 52 58 51
29.9546295215802 6.52328936439104 512.174565400944 50 56 49
32.9737060057736 9.87121079758281 511.008978126966 43 49 42
32.2413740859494 8.67507001798598 511.896386731734 40 46 39
35.9747843190498 13.1908331799808 509.837809789997 60 66 59
35.6157519426379 11.8865327781886 509.789709972767 64 70 63
32.6253647766764 7.1414593319445 509.976790988662 44 50 43
34.88863476948 10.7000649692619 510.678609659652 67 73 66
36.6997558803965 14.3695063649924 508.948622654005 54 60 53
37.4232970338689 15.5429831340605 508.059243885275 49 55 48
38.5957096152667 16.6122602830925 509.599646792639 50 54 47
37.5116523426328 15.5655692163433 511.428623964241 41 45 38
37.1519047622837 14.2586706065794 511.380428330642 28 34 27
39.6730683984849 19.0803644832827 508.756876759023 40 46 39
39.3106518983603 20.6552652599765 510.68253264693 61 65 58
38.9540267877416 17.913962476913 509.6476507935 37 43 36
27.2808784665044 4.46695853002782 513.383246327377 61 69 62
34.1600871884481 9.50840074439193 511.567317713799 63 69 62
36.427856723981 13.0740811444078 512.270531650536 61 67 60
21.4375812942988 1.90066174059358 514.337380391712 56 62 55
19.47753903081 1.03771609042861 514.650610547785 80 86 79
23.0059092052451 2.86049693242362 514.95243685958 75 81 73
25.7217579601235 3.51275837846291 512.771800758537 58 66 59
33.0605939949218 8.42417628050055 513.392642006584 65 71 64
40.8500338574874 18.7204338749584 509.310785079294 50 56 49
41.565237794563 21.318641846656 509.406601448278 58 62 55
40.4923252191988 20.2938949292189 511.238656600482 59 63 56
42.0330309164492 21.2368250002535 511.842880371264 54 58 51
43.2222195799966 22.320690299004 513.389493076413 71 75 68
41.4508000807685 24.7506267971257 526.83325724262 83 83 73
40.7837090203207 26.5253778741997 529.717087090174 0 0 0
41.318697167542 20.0689832714504 512.735870039023 37 43 36
42.8624719996475 21.0137916892401 513.341297442814 55 59 52
43.6966209446819 20.7893186557934 514.841930147645 63 67 60
42.5027244192985 19.7068930794762 513.293101809215 39 45 38
44.0690986144061 23.5511258657356 515.882105614958 77 79 71
43.7079206261829 22.2390308400283 515.833718348621 68 72 65
42.8158007085729 22.7124739573165 522.060793157983 75 77 69
41.5615694205224 37.0504951062379 539.159317379622 123 113 76
41.60189389772 38.5871066390772 540.156578970424 127 117 80
41.6436487827918 40.1289145878599 541.154032193965 127 117 80
41.1090144188479 32.6262038952766 537.114969686145 78 72 47
40.845208132294 35.8382026050212 540.055205252039 110 100 65
43.1453802483356 21.1109950891572 520.122813490874 61 63 55
41.5821675265109 21.8340052186373 528.251624704267 65 63 53
43.8260601835878 19.3856099635454 517.24080415433 42 44 36
42.2500640375124 20.0899940129019 525.36552538685 41 43 35
41.6709827400576 18.4943637316515 510.805687068184 59 65 58
40.1348299204117 16.1222259032607 509.214968710309 57 63 56
39.0561957135509 15.0766933220501 511.046257331561 41 47 40
41.3126655675827 17.1926615378311 510.757683067323 42 48 41
38.3359320140402 13.8965804146052 511.937660100834 34 40 33
22.6404399933994 1.53281265888612 514.903474695028 61 67 59
26.91755486647 3.14706888040542 513.334571611933 72 80 73
24.5919900562601 2.39272147675763 514.586729456295 69 75 67
29.2163676511527 5.31487740615239 513.060387107227 65 71 64
28.491150858958 2.68029452285099 512.963229309077 63 71 63
28.8537592550553 3.99758596450164 513.011808208152 83 91 84
31.1457185660907 6.15903958876684 512.735120621058 50 56 49
32.6987008027616 7.10948304682166 513.344158923878 72 78 71
18.3264955020678 -0.103983723693737 516.45793418201 61 69 61
20.2933912392038 0.765316827953008 516.147207108324 57 63 56
36.4383928870645 10.2208620456388 510.297734109089 67 73 66
40.9541934108764 14.4631913090877 509.720968846088 52 58 51
41.3117953794142 15.7622952949364 509.76887703058 55 61 54
36.7974252634765 11.525162447431 510.345833926319 43 49 42
37.6142379066555 12.7112710912169 512.828871237369 31 37 30
42.1429768389494 18.3999944697123 513.244906175616 46 52 45
42.1376071080518 16.9625534641193 512.254704873126 44 50 43
19.926491619484 -0.567563861527873 516.098053311035 63 71 63
40.237714050158 13.2875549563696 510.613671064739 44 50 43
39.1602116854477 12.2275916128671 512.446696237427 49 55 48
37.6164368533421 11.2827831950774 511.841268833636 31 37 30
41.7785747316398 15.6582530623271 512.206605055895 45 51 44
42.131158869879 14.1032607007633 510.274877166359 58 64 57
44.0373451817143 19.2097839369461 512.907028461138 48 52 45
43.6783128053023 17.9054835351539 512.858928643908 61 65 58
36.4458065804174 8.8020471201694 509.311622787472 54 60 53
37.256689272993 9.97588458531343 511.793073200037 57 63 56
41.7735569013412 12.8041567149145 510.226968981867 44 50 43
38.8004641050987 10.9206930031031 512.398500603828 41 47 40
41.0587162676036 11.6252022930081 511.12068320079 52 58 51
42.2547698075374 15.5513313848511 514.648764347773 44 50 43
42.9672565103569 16.7310056679742 513.753942312209 42 48 41
47.7178403683577 41.1872363557329 542.652779559389 76 74 49
42.9367713931984 41.2936726465456 542.73992768637 122 114 77
42.222764035888 40.0806602841122 543.636923375428 128 118 81
44.2360322733151 42.4621873987414 544.328230444795 124 116 79
43.1932139150545 41.4169695923843 546.175411764491 127 119 82
44.4502130252692 41.0325637026939 546.76698585054 118 111 80
45.4883235216938 42.0792212314844 544.917588897564 119 112 81
42.1772248120241 38.5343757806027 542.638170702509 128 119 80
62.9756323677016 71.734256632835 542.38092369914 138 125 101
61.7005209451259 71.0498541716355 545.204693025513 124 111 88
63.3511144346663 73.0983158179763 542.431227292857 139 126 102
54.220670391268 66.6251700041573 548.922286902355 72 71 47
60.7217099547352 70.1259084292635 547.069958963344 125 112 89
56.9294409302584 70.1802977373227 548.71174177084 100 93 63
41.7974515214369 37.1547273476313 542.587292210578 127 118 79
48.3162939536282 41.1443358553554 545.143808722812 74 73 51
42.4293761102577 38.6420834786113 546.073079882415 126 119 80
42.8112950126562 40.0295265354978 546.124245823453 125 115 78
45.7072121354839 40.6481578130036 547.358559936589 96 91 61
54.793687719781 51.2223635227441 548.272175627802 109 109 89
53.8229599451147 57.9290835131412 551.710164448221 97 95 77
54.5543976003264 52.9849648231075 550.236515691164 117 115 95
55.2149096764066 46.513592796051 547.751203726976 97 95 77
55.0475589057444 49.8256728196442 550.725757895137 90 88 68
55.5946829669938 47.8932412290224 547.802082218907 123 121 101
63.3210241486084 72.0416212583013 545.840211254543 130 117 93
63.1311348215129 74.9310687335755 544.398154398181 132 119 95
54.2927902332938 68.2309320541209 549.927770434692 124 120 95
58.184086109555 69.796611708849 549.302208040249 86 77 47
59.4387312888517 69.4129256803753 549.892674309658 106 96 69
62.6458739488802 70.8955998293423 546.748752335056 132 119 96
54.6754243396292 69.6209733189791 549.979032192098 117 111 84
55.0580584459647 71.0110145838374 550.030293949505 105 100 70
41.0398087274459 29.5945521571452 535.121979566444 72 69 53
40.7328171479461 31.2595465021636 537.064570276059 70 65 44
40.466865249581 34.4637505879931 540.004518392846 89 83 49
40.9959417360839 32.8621370180374 541.487261635643 116 109 79
41.2555470456322 29.6626907238296 538.544085885304 64 61 40
40.9554089397796 31.3340399703299 540.489179677307 91 85 60
41.0812985523152 35.9339203612828 543.484000450529 128 118 81
42.3807677515387 37.0939206283468 545.073123576487 126 117 76
17.1725911575772 -1.25607636970289 518.264874550759 59 67 59
14.004061991268 -1.86604417944152 521.351365350619 53 59 52
17.996428681769 -1.53655149298849 519.765710745122 73 81 73
21.1340581804207 -0.936852665668624 516.666363247633 55 63 55
21.5009578001404 0.396028023812256 516.715517044922 72 78 70
19.2134109663776 -1.90871974199581 520.338451948282 68 76 68
14.8342461042767 -2.15127709434877 522.855429178535 69 75 68
24.2272360483515 1.06763541119184 514.537863108113 70 77 66
35.7203281342405 7.61226124205439 510.201534474628 72 78 71
25.7924948244427 2.02559225626684 515.151715942971 66 74 66
22.708524361077 0.0267392196715335 517.28382698152 71 78 67
25.0461573916005 0.797114495471277 516.035663301662 76 83 72
27.7500281727822 1.46148973272552 513.848667749884 98 104 96
30.035795879232 5.05546918353524 514.557462749611 51 59 52
29.6724722791976 3.73557953391284 514.508788034167 84 92 85
31.594916385613 6.00966933510016 515.16890831845 39 45 38
29.6845938343866 2.31532488601013 513.524892345831 62 68 60
24.6806881797548 -0.530569778066202 515.986701137111 67 73 65
21.9562569776315 -1.21400971976588 518.166187441725 51 59 51
26.249016090701 0.429265413763851 516.601757604979 70 76 68
34.9934192801894 6.41727894799602 511.091254529047 70 76 69
36.896941692644 8.66898597554958 511.744877566437 59 65 58
29.6981457974497 0.900266654050824 512.541188290234 70 76 69
30.1235171448074 3.57437672592608 516.944408099364 46 52 45
30.488271152716 4.89946279149189 516.993274447546 42 50 43
33.5278966551118 5.43054003751846 513.856231061286 60 66 59
36.902001455079 7.2508909112968 510.75765842818 61 67 60
36.5429690786671 5.94659050950461 510.70955861095 72 78 71
38.0796935207577 9.72946740255485 513.290627924266 52 58 51
30.8892348419602 0.536016878426629 513.101743510348 64 68 61
30.5049455855097 2.05000038623295 515.022884172118 55 61 54
23.5491913022937 -1.67543027395008 517.802983120829 59 65 57
28.2056259159967 -0.128920832617425 515.297793227988 78 84 77
25.8835468788554 -0.898418859773628 516.552795440428 88 92 85
20.0443102833233 -2.19135444893137 521.842611592567 67 75 68
32.4273896919251 4.32409018742027 515.683004456401 57 63 56
27.4639963449906 -1.35883831584628 516.18395621996 74 80 73
24.7567578632303 -2.0447190780908 518.371293057427 56 60 53
35.8176989515969 4.74829014625784 511.60029066564 70 76 69
34.7240454620574 3.64819519764149 513.429567143143 60 66 59
29.7782983854408 -0.589778913011834 514.92553474123 79 85 78
31.32402191299 3.20724750543529 517.509394586041 44 50 43
31.3300051984689 1.78323616402248 516.523091631686 45 51 44
38.4427071523295 8.19382098233141 511.361882198962 61 67 60
38.4461281877836 6.77904398726704 510.373651060433 52 58 51
38.0878110153087 5.47734179344649 510.325647059572 46 52 45
39.9844913568551 10.5586028111289 512.955732374021 84 90 83
39.2660747034323 9.36665734936395 513.848967511099 62 68 60
31.3374188918218 0.364421238553057 515.536980310069 44 50 43
33.9951993153018 2.43690379453627 514.319820115988 65 71 64
42.596352829999 12.5662540172877 511.723703338562 51 57 49
42.2380356575241 11.2645518234671 511.675699337701 51 57 49
42.2477613496588 14.1172084484464 513.657551045011 62 68 61
25.5860184531952 -2.32403571583801 519.87444070144 58 62 55
43.8131217751059 17.9392158484988 516.248003953083 61 63 55
43.801613774498 16.4980181493958 515.255395384574 52 56 49
39.264996196157 7.9448055916011 512.859341106822 72 78 71
41.5241185468305 10.0796811244006 512.570329740526 66 72 64
39.265348096756 6.52815024978162 511.869906335284 71 77 69
42.740380607107 15.4415302625084 517.095354906212 42 46 39
42.5756509193762 18.4925530751475 523.425425902829 53 55 47
43.2514146736856 16.7771221571008 520.540380565471 52 52 42
61.3728178914991 70.190850328691 549.575174396767 128 115 92
62.81037548815 74.1065614554797 548.768773565591 140 127 103
59.5978668194876 79.8742116797266 549.069232643521 130 116 97
43.4092417130964 39.9755133420169 548.615999538041 124 116 81
51.2272797629639 41.458412428807 541.968134997679 91 91 73
49.5662312710888 40.762089549315 545.732059358939 61 59 41
47.2883143848127 40.0973970896702 546.997732758719 43 42 20
40.3637151753195 34.7079169589908 544.380517057741 114 107 68
41.665538305461 35.8671973648382 545.97074800034 125 116 75
43.3561338116481 38.4202757290539 547.614647966365 120 114 80
52.2102145006576 42.7937206389677 544.512258286314 115 117 99
51.8318716179446 41.4192686219396 544.461571427121 88 90 73
55.4573591773329 44.7810115058095 545.785702010393 58 56 38
54.40424095542 63.6756825086393 550.366667065161 107 105 81
54.4779995244267 65.2781264894145 551.37316259777 127 125 100
55.3213175297268 69.6762422477364 552.482756543405 109 102 72
58.1514613993457 68.6843536836569 552.714814757757 92 80 51
56.5853784326955 69.2896767743961 553.077654079376 96 87 57
60.3944235393218 69.2498756160555 551.442081069665 112 101 78
40.3227322352804 28.3796614479567 536.017771622492 81 78 64
40.6332998344655 26.7276581427966 534.075659994722 69 66 59
40.6029882123869 25.2274215215611 533.079739833086 84 84 74
40.5017220959544 26.9241795216603 538.443095432394 51 47 37
40.5386788725734 28.4392855295094 539.440698308885 81 78 58
63.3007662244362 70.9650182834964 549.255267217857 126 113 90
60.8875848447397 66.0905836125921 551.931323273639 126 116 89
59.0298190611238 66.9058685987034 553.257246903312 84 72 43
62.6251091398777 69.8078841614339 550.164532849535 126 113 90
59.7128365041599 68.0804703153511 552.349759802858 119 109 84
