ply
format ascii 1.0
element vertex 943
property float x
property float y
property float z
property uchar red
property uchar green
property uchar blue
element face 0
property list uchar int vertex_indices
end_header
-26.8850735675838 136.862800313515 922 171 182 195
-26.9433925991838 139.679453589731 924 170 184 194
-26.9725521149838 142.353119700307 925 138 150 160
-27.0017116307838 145.032239860333 926 173 185 195
-27.0308711465837 147.71681406981 927 171 183 193
-27.0600306623837 150.406842328737 928 176 185 196
-27.1183496939837 153.267128000555 930 180 187 198
-27.2058282413836 156.305852159441 933 173 180 193
-27.2641472729836 159.190681053786 935 164 173 186
-27.3224663045836 162.086418047032 937 172 181 194
-27.4099448519835 165.16877460152 940 164 175 188
-27.5265829151834 168.445931791426 944 169 180 193
-27.6432209783834 171.744905179133 948 165 178 193
-27.7015400099833 174.697909691607 950 162 175 190
-27.7890185573833 177.848441864224 953 161 175 192
-27.8181780731833 180.636643013256 954 158 172 189
-27.8473375889832 183.430298211738 955 154 168 185
-27.8764971047832 186.229407459671 956 164 178 195
-27.9056566205832 189.033970757054 957 163 177 194
-28.0222946837831 192.444752158492 961 163 175 192
-28.1097732311831 195.674368048138 964 166 179 194
-28.197251778583 198.920346086135 967 157 170 183
-28.255570810183 201.974250513439 969 134 147 160
-28.255570810183 204.616737472106 969 166 181 194
-28.313889841783 207.687004047761 971 167 180 195
-28.3430493575829 210.551561889097 972 165 178 193
-28.3430493575829 213.202229921939 972 165 178 193
-28.3722088733829 216.074968837451 973 164 177 192
-28.4305279049829 219.177959709808 975 168 179 192
-28.4888469365829 222.291858681065 977 171 182 195
-28.5471659681828 225.416665751223 979 179 187 196
-28.7512825787827 229.717275828132 986 187 192 199
-24.6086491906725 3.63919023643924 931 208 208 210
-24.2650268066997 6.0917831735717 918 195 195 195
-24.1857293334751 8.56710300893157 915 244 244 242
-24.1328643513255 11.0381506747738 913 244 243 239
-24.053566878101 13.4834732381571 910 242 241 237
-23.9742694048765 15.9124336531895 907 247 244 238
-23.8949719316519 18.325031919871 904 246 243 237
-23.7628094762778 20.6752718827339 899 241 236 230
-23.6306470209036 22.9982415983454 894 240 235 228
-23.5513495476791 25.3508453210737 891 236 231 224
-23.4720520744546 27.6870868954511 888 239 234 227
-23.3663221101552 29.9730601448432 884 236 231 225
-23.2605921458559 32.2372171964342 880 244 239 233
-23.1812946726314 34.5189182763087 877 244 239 233
-23.1019971994069 36.7842572078323 874 246 241 235
-22.9962672351075 38.98841971547 870 241 236 230
-22.916969761883 41.2183073255667 867 239 234 228
-22.7848073065088 43.3312961373419 862 247 242 236
-22.6526448511346 45.4170147018657 857 247 242 236
-22.5733473779101 47.5869077680092 854 244 239 233
-22.5204823957605 49.7988880849625 852 241 238 234
-22.5204823957605 52.1223131507871 852 231 231 231
-22.5204823957605 54.4457382166117 852 212 215 221
-22.5733473779101 56.9024242291087 854 179 184 194
-22.6526448511346 59.4393758385676 857 178 185 196
-22.7319423243592 61.9926895963774 860 176 185 198
-22.7848073065088 64.4875539550264 862 167 176 189
-22.8376722886585 66.993326412576 864 185 193 209
-22.8905372708082 69.5100069690262 866 183 192 205
-22.9698347440327 72.120588246064 869 181 188 201
-22.9962672351075 74.5760923786283 870 181 190 203
-23.0491322172572 77.1254972317803 872 182 191 204
-23.075564708332 79.5946364879703 873 168 179 192
-23.1548621815565 82.2570312347859 876 173 184 197
-23.2077271637062 84.8391603846396 878 178 189 204
-23.2870246369307 87.5315524034319 881 174 185 200
-23.3134571280055 90.0361429810488 882 174 185 200
-23.3398896190804 92.546187608116 883 176 187 200
-23.3927546012301 95.1692221288469 885 142 153 166
-23.4720520744546 97.9134276174169 888 165 176 189
-23.5777820387539 100.786985148002 892 168 181 196
-23.6570795119784 103.566641957998 895 163 176 191
-23.7099444941281 106.244216973232 897 167 180 195
-23.7363769852029 108.811529119528 898 155 166 181
-23.7892419673526 111.508193307837 900 172 180 196
-23.8156744584274 114.089140577758 901 172 184 194
-23.8685394405771 116.804893939144 903 149 161 171
-23.9214044227268 119.531555399431 905 171 183 193
-23.9742694048765 122.269124958618 907 169 181 191
-24.0271343870261 125.017602616705 909 167 180 193
-24.1064318602506 127.917248514609 912 157 170 183
-24.21216182455 130.976243726503 916 157 170 183
-24.2650268066997 133.765626755468 918 170 183 196
-24.3443242799242 136.714359098424 921 169 180 193
-24.3443242799242 139.225948870284 921 161 173 183
-24.370756770999 141.891433906684 922 171 183 193
-24.370756770999 144.405750703269 922 171 183 193
-24.3971892620738 147.079416813845 923 173 182 195
-24.4500542442235 149.920613312588 925 169 178 191
-24.4764867352983 152.607914546789 926 175 184 197
-24.529351717448 155.468200218608 928 174 181 194
-24.5822166995977 158.339393989327 930 161 170 183
-24.6350816817474 161.221495858947 932 169 178 191
-24.7143791549719 164.290217289809 935 166 177 190
-24.8201091192712 167.55373935609 939 169 180 193
-24.8994065924957 170.657912108379 942 163 174 189
-25.0051365567951 173.962339545537 946 159 170 185
-25.1637315032441 177.661822302981 952 160 171 184
-25.2958939586183 181.204682771159 957 165 176 191
-25.3223264496931 184.006519043817 958 163 174 189
-25.2694614675434 186.229407459671 956 166 178 195
-25.2165964853938 188.441387776624 954 166 180 197
-25.2694614675434 191.443478734151 956 169 181 198
-25.3487589407679 194.659459500171 959 153 166 181
-25.4544889050673 198.097511148861 963 165 178 191
-25.4809213961421 200.93207171822 964 153 166 179
-25.4809213961421 203.560923553261 964 139 152 165
-25.507353887217 206.403665196796 965 144 157 172
-25.507353887217 209.035244056562 965 165 178 193
-25.5602188693666 212.105510632217 967 165 178 193
-25.6130838515163 215.186685306773 969 167 180 195
-25.665948833666 218.278768080229 971 167 180 195
-25.6923813247408 221.154234020466 972 166 179 194
-25.6923813247408 223.804902053308 972 176 185 196
-25.7716787979653 227.15450703086 975 183 189 196
-25.9302737444143 231.227592175649 981 171 176 182
-21.9038509071136 3.61182790383443 924 193 193 193
-21.7616181090154 6.0917831735717 918 179 179 177
-21.714207176316 8.57646596303969 916 248 246 244
-21.6667962436166 11.0502406536071 914 246 243 239
-21.6193853109173 13.5131072452739 912 244 241 237
-21.5008579791688 15.9124336531895 907 244 241 235
-21.3823306474204 18.2844898138536 902 246 243 237
-21.2875087820216 20.6522738050001 898 242 237 231
-21.1926869166229 22.9982415983454 894 241 236 229
-21.1215705175738 25.3508453210737 891 236 231 224
-21.026748652175 27.6559077435418 887 238 233 226
-20.9319267867763 29.9391539682088 883 238 233 227
-20.8133994550278 32.163950793715 878 246 241 235
-20.7422830559787 34.4401978241392 875 247 242 236
-20.6948721232794 36.7421699570224 873 243 238 232
-20.64746119058 39.033233991005 871 240 235 229
-20.5526393251812 41.2183073255667 867 237 232 226
-20.4341119934328 43.3312961373419 862 246 241 235
-20.2918791953346 45.3640193521552 856 245 240 234
-20.2207627962856 47.5311853935736 853 243 238 232
-20.1733518635862 49.7404386858018 851 240 235 229
-20.1496463972365 51.9999603030153 850 237 232 226
-20.0785299981874 54.1262209735565 847 228 226 224
-20.1022354645371 56.5026413890915 848 206 209 215
-20.1733518635862 59.0232308501996 851 171 176 183
-20.3155846616843 61.7764360280179 857 144 153 164
-20.3629955943837 64.2631193124915 859 183 192 205
-20.4104065270831 66.7607106958657 861 180 189 202
-20.4578174597825 69.2692101781404 863 183 192 205
-20.5289338588315 71.8716103810028 866 155 162 175
-20.5526393251812 74.3189334393917 867 178 185 198
-20.5763447915309 76.7717105472308 868 168 177 190
-20.6237557242303 79.3211154003828 870 164 173 186
-20.6711666569297 81.8814283524353 872 181 192 205
-20.7422830559787 84.5492771487012 875 176 187 200
-20.8133994550278 87.233488093318 878 170 181 194
-20.8133994550278 89.6278158019964 878 167 178 191
-20.8371049213775 92.1269523301631 879 171 182 195
-20.8608103877272 94.63154290778 880 179 190 203
-20.9793377194756 97.5826390106013 885 138 149 162
-21.0741595848744 100.44801546701 889 166 179 192
-21.0978650512241 102.988057366054 890 167 180 193
-21.1689814502732 105.770441200776 893 162 175 188
-21.1926869166229 108.326845248171 894 145 156 171
-21.2400978493222 111.01260133758 896 174 185 200
-21.2875087820216 113.70926552589 898 166 177 190
-21.334919714721 116.416837813101 900 173 184 197
-21.3586251810707 119.003239132472 901 171 185 195
-21.3823306474204 121.595094501294 902 172 186 196
-21.4534470464694 124.467470151945 905 170 183 196
-21.5245634455185 127.356207950948 908 172 185 198
-21.6193853109173 130.404295063942 912 171 184 197
-21.6667962436166 133.182769994006 914 156 169 182
-21.6905017099663 135.823711807881 915 168 179 192
-21.6905017099663 138.318939431389 915 163 175 185
-21.714207176316 140.968062319439 916 173 185 195
-21.7616181090154 143.779261546205 918 173 185 195
-21.8327345080645 146.760718185863 921 170 181 194
-21.8801454407639 149.596460635155 923 157 168 181
-21.8801454407639 152.113504456465 923 169 180 193
-21.8801454407639 154.630548277775 923 166 177 190
-21.8801454407639 157.147592099085 923 171 182 195
-21.9749673061626 160.356573670863 927 169 180 193
-22.022378238862 163.235948515757 929 173 184 197
-22.1172001042608 166.483108433687 933 166 177 190
-22.1646110369601 169.389753525833 935 165 176 189
-22.2357274360092 172.491199253397 938 169 178 191
-22.401665700457 176.355485374283 945 155 162 175
-22.6624258303036 181.015336185191 956 149 158 171
-22.7809531620521 184.582739875896 961 112 121 134
-22.6624258303036 186.229407459671 956 162 175 190
-22.5438984985552 187.848804796195 951 163 176 191
-22.5201930322055 190.24195062494 950 167 180 195
-22.5913094312546 193.44156924261 953 148 161 176
-22.6624258303036 196.65755000863 956 152 165 178
-22.6861312966533 199.473021404914 957 167 180 193
-22.709836763003 202.293946850648 958 152 165 178
-22.7335422293527 205.120326345832 959 151 164 179
-22.7335422293527 207.735543057247 959 167 180 195
-22.7572476957024 210.570103626607 960 163 178 193
-22.8046586284018 213.632189128086 962 164 179 194
-22.8520695611011 216.705182728466 964 168 181 196
-22.8994804938005 219.789084427747 966 172 185 200
-22.8994804938005 222.423390312238 966 171 182 195
-22.9705968928496 225.75663314144 969 174 183 194
-23.0654187582484 229.341944125287 973 175 183 192
-19.6987566854466 1.10978525678956 939 169 171 171
-19.3001662945803 3.59619228520311 920 187 187 187
-19.2372309697066 6.08514724418872 917 227 225 223
-19.2162525280821 8.57646596303969 916 248 247 243
-19.1952740864575 11.0623306324404 915 246 243 237
-19.0903818783348 13.4834732381571 910 244 241 235
-19.0274465534612 15.9124336531895 907 245 242 236
-18.943532786963 18.3047608668623 903 245 242 236
-18.8596190204648 20.6752718827339 899 244 239 233
-18.7757052539667 23.0239667008044 895 239 234 227
-18.6917914874685 25.3508453210737 891 236 231 224
-18.5868992793458 27.6247285916325 886 236 231 224
-18.5029855128476 29.9052477915744 882 239 234 227
-18.3980933047249 32.1273175923554 877 247 242 236
-18.3561364214758 34.4401978241392 875 244 239 233
-18.3141795382267 36.7421699570224 873 238 233 227
-18.2512442133531 38.98841971547 870 239 234 228
-18.1463520052303 41.1232247250464 865 245 240 234
-18.0624382387322 43.2810278123566 861 244 239 233
-17.9365675889849 45.3110240024447 855 242 237 231
-17.8526538224867 47.4197406447023 851 238 233 227
-17.8106969392376 49.6235398874803 849 239 234 227
-17.7897184976131 51.8776074552435 848 236 231 224
-17.747761614364 54.0623175249454 846 237 232 226
-17.7267831727395 56.302749969083 845 232 230 230
-17.7897184976131 58.8151583560155 848 197 198 202
-17.8736322641113 61.4160134140855 852 172 180 189
-17.9575460306095 64.0386846699566 856 182 189 200
-17.9995029138585 66.5280949791553 858 182 191 204
-18.0414597971076 69.0284133872547 860 183 190 203
-18.0624382387322 71.4566472725675 861 188 192 206
-18.0834166803567 73.8903352073306 862 187 191 205
-18.1253735636058 76.4179238626814 864 172 179 192
-18.1673304468549 78.9564206169327 866 163 170 183
-18.2302657717285 81.5997261906724 869 174 183 196
-18.2512442133531 84.0661384221372 870 160 169 182
-18.3141795382267 86.7367142431283 873 173 182 195
-18.3351579798512 89.2194886229441 874 172 183 196
-18.3351579798512 91.6029082327219 874 173 182 195
-18.3561364214758 94.0938636867131 875 171 182 195
-18.440050187974 96.9210617969702 879 157 168 181
-18.5239639544721 99.7700761050284 883 156 169 182
-18.5659208377212 102.40947277411 885 159 172 185
-18.5659208377212 104.822889655865 885 165 178 191
-18.6078777209703 107.478648473297 887 147 158 173
-18.6917914874685 110.393111374759 891 171 182 197
-18.7757052539667 113.329390474022 895 172 183 196
-18.8386405788403 116.158133729071 898 170 181 194
-18.8386405788403 118.607001932253 898 170 182 192
-18.8176621372157 120.921064043969 897 171 183 193
-18.8805974620894 123.779804570995 900 171 184 197
-18.943532786963 126.654907246372 903 172 185 198
-19.0274465534612 129.689359235741 907 170 183 196
-19.0484249950857 132.308484851814 908 165 178 191
-19.0274465534612 134.636182087156 907 161 174 187
-19.0274465534612 137.109593512864 907 165 178 191
-19.0694034367103 139.890795467653 909 161 174 187
-19.1323387615839 142.839527810609 912 173 184 197
-19.2162525280821 145.963971615907 916 171 182 195
-19.2582094113312 148.786078941574 918 169 181 191
-19.2791878529557 151.454291002699 919 167 179 189
-19.2582094113312 153.792896336942 918 162 175 188
-19.2791878529557 156.466562447518 919 172 183 196
-19.3631016194539 159.664635920395 923 169 180 193
-19.405058502703 162.533102666389 925 172 181 192
-19.4260369443275 165.234039024216 926 171 180 191
-19.4470153859521 167.940429431494 927 173 184 197
-19.5309291524502 171.203951497775 931 170 179 192
-19.635821360573 174.675909323099 936 134 141 154
-19.8246273351938 178.932523739546 945 37 44 57
-19.9504979849411 182.662003768967 951 67 74 85
-19.908541101692 184.865803011744 949 116 127 140
-19.8456057768184 186.861166495479 946 154 167 182
-19.8246273351938 189.240677200599 945 160 173 188
-19.8456057768184 192.020697275455 946 165 177 194
-19.908541101692 195.2175888684 949 168 181 196
-19.9295195433166 198.013971091607 950 165 178 193
-19.9714764265657 201.026970148034 952 163 176 191
-19.9714764265657 203.623097686373 952 163 176 191
-19.9504979849411 206.002608391493 951 165 178 193
-19.9714764265657 208.815352763052 952 164 177 192
-20.0344117514393 212.077692949399 955 169 184 199
-20.0973470763129 215.356395284098 958 166 179 192
-20.1812608428111 218.878984699267 962 172 185 198
-20.2022392844356 221.732634441703 963 174 185 198
-20.2441961676847 224.824717215159 965 170 181 194
-20.2651746093093 227.692002081221 966 167 176 187
-20.3281099341829 231.041607058773 969 174 182 191
-20.4749590255547 235.372214407659 976 191 197 203
-16.9738177164397 1.09914833739541 930 180 182 182
-16.7913035474457 3.59619228520311 920 189 189 187
-16.7548007136469 6.0917831735717 918 241 240 236
-16.7182978798481 8.57646596303969 916 245 244 240
-16.6635436291499 11.0381506747738 913 245 242 236
-16.572286544653 13.4538392310403 908 245 242 236
-16.5175322939548 15.8773455966224 905 244 241 235
-16.481029460156 18.3047608668623 903 242 239 233
-16.4262752094578 20.6982699604678 900 243 238 231
-16.3532695418602 23.0496918032634 896 237 232 225
-16.2802638742626 25.3792974482579 892 239 234 227
-16.1890067897656 27.6559077435418 887 240 235 228
-16.0977497052686 29.9052477915744 882 239 234 228
-16.0064926207716 32.1273175923554 877 245 240 234
-15.9517383700734 34.4008375980545 874 243 238 231
-15.8787327024758 36.6159082045928 870 235 230 223
-15.842229868677 38.8987911643999 868 236 231 225
-15.7692242010795 41.0756834247862 864 248 243 237
-15.7327213672807 43.3312961373419 862 243 238 232
-15.6597156996831 45.4700100515761 858 242 236 229
-15.5867100320855 47.5869077680092 854 234 228 221
-15.5137043644879 49.681989286641 850 235 230 220
-15.4589501137897 51.8164310313576 847 233 228 221
-15.4406986968903 54.0623175249454 846 244 239 233
-15.3859444461921 56.1694890224106 843 233 230 226
-15.4041958630915 58.5377283637702 844 222 220 220
-15.4406986968903 60.9835062773666 846 174 179 185
-15.5137043644879 63.5898153848868 850 168 174 181
-15.5684586151861 66.1404021179714 853 179 188 199
-15.6049614489849 68.627085402445 855 177 184 197
-15.6414642827837 71.1246767858192 857 185 191 207
-15.6597156996831 73.5474566216817 858 183 189 205
-15.6962185334819 76.0641371781319 860 184 190 206
-15.7509727841801 78.6828995293452 863 174 183 196
-15.8057270348783 81.3180240289094 866 183 192 205
-15.8239784517777 83.7762551861988 867 179 188 201
-15.8604812855764 86.3392951629765 869 162 171 184
-15.8787327024758 88.8111614438917 870 156 167 180
-15.8787327024758 91.1836729547689 870 164 175 188
-15.8787327024758 93.5561844656461 870 168 179 194
-15.9517383700734 96.3697474522775 874 173 184 199
-16.0429954545704 99.3181165303737 879 171 184 199
-16.0794982883692 101.946605100555 881 166 181 194
-16.0794982883692 104.349113883409 881 166 181 194
-16.0977497052686 106.872793634102 882 167 180 195
-16.1525039559668 109.649723419373 885 168 179 194
-16.2255096235644 112.569640370285 889 169 177 193
-16.2437610404638 115.123317392955 890 170 178 194
-16.2802638742626 117.814527531815 892 169 180 193
-16.2802638742626 120.247033586645 892 166 179 192
-16.3532695418602 123.229672106235 896 159 172 185
-16.3715209587596 125.813346400882 897 162 175 190
-16.4262752094578 128.688449076259 900 167 180 193
-16.4445266263572 131.288485519256 901 169 182 195
-16.4445266263572 133.745534796612 901 166 179 192
-16.4627780432566 136.353752313785 902 164 177 190
-16.4992808770554 139.121319144949 904 169 180 193
-16.5905379615523 142.369660942811 909 170 179 192
-16.7000464629487 145.804622301916 915 172 181 194
-16.7182978798481 148.461926264141 916 166 178 188
-16.6817950460493 150.630274185492 914 156 167 180
-16.6635436291499 152.955244396109 913 168 181 194
-16.7000464629487 155.785532795951 915 167 178 191
-16.7730521305463 158.972698169927 919 162 174 184
-16.8095549643451 161.830256817021 921 166 175 186
-16.8460577981439 164.698723563015 923 174 183 194
-16.8460577981439 167.215767384325 923 176 185 198
-16.9190634657415 170.468381351705 927 170 177 190
-16.9920691333391 173.742811516886 931 177 182 193
-17.0650748009367 177.039057879868 935 175 182 193
-17.1015776347355 179.972973219266 937 76 84 93
-17.1015776347355 182.528195386728 937 73 85 95
-17.1380804685343 185.478472874476 939 82 93 106
-17.1563318854337 188.239403776257 940 162 175 190
-17.1928347192325 191.208770437081 942 164 177 192
-17.2110861361319 193.983336462488 943 164 179 194
-17.2475889699307 196.971792296388 945 164 179 194
-17.2840918037295 199.971156229189 947 165 180 195
-17.3023432206288 202.767538452397 948 170 183 198
-17.3023432206288 205.352757891835 948 169 182 197
-17.3023432206288 207.937977331274 948 171 184 197
-17.3388460544276 210.967338536052 950 171 184 197
-17.3936003051258 214.232405747125 953 171 184 197
-17.4666059727234 217.741360038668 957 173 186 199
-17.5031088065222 220.811626614323 959 175 186 201
-17.539611640321 223.892801288879 961 173 184 197
-17.5578630572204 226.749178056039 962 170 181 194
-17.5761144741198 229.611008872651 963 130 140 149
-17.5943658910192 232.478293738712 964 170 178 185
-17.7038743924156 236.570468056577 970 195 200 206
-14.3755871533567 1.09442081766468 926 206 206 206
-14.2824408003112 3.59619228520311 920 198 198 196
-14.2513920159627 6.0917831735717 918 246 243 239
-14.2203432316142 8.57646596303969 916 246 243 237
-14.1582456629172 11.0260606959406 912 245 242 236
-14.0961480942202 13.4538392310403 908 245 242 236
-14.0340505255232 15.8598015683388 904 244 241 235
-14.0185261333489 18.3047608668623 903 242 237 231
-13.9719529568262 20.6982699604678 900 240 235 228
-13.9253797803034 23.0754169057224 897 234 228 221
-13.8632822116064 25.407749575442 893 234 228 221
-13.7856602507351 27.6870868954511 888 236 231 224
-13.7080382898639 29.9391539682088 883 237 232 226
-13.6304163289926 32.163950793715 878 246 241 235
-13.5683187602956 34.4008375980545 874 239 234 227
-13.4906967994244 36.5738209537829 869 234 229 222
-13.4596480150759 38.8539768888649 867 243 238 231
-13.4130748385531 41.0756834247862 864 245 240 234
-13.3975504463789 43.3815644623272 863 240 234 228
-13.3354528776819 45.5230054012866 859 236 230 223
-13.2733553089849 47.6426301424448 855 232 227 217
-13.2112577402878 49.7404386858018 851 234 229 219
-13.1646845637651 51.8776074552435 848 241 236 229
-13.1336357794166 54.0623175249454 846 242 237 230
-13.0715382107196 56.1028585490744 842 239 234 228
-13.0404894263711 58.2602983715248 840 232 227 221
-13.0249650341968 60.4789146178612 839 219 219 219
-13.0715382107196 62.9913230047938 842 184 187 191
-13.1491601715908 65.6751706845508 847 177 182 192
-13.2112577402878 68.3060230145973 851 150 157 170
-13.2267821324621 70.7097136773839 852 86 94 110
-13.2267821324621 73.0331387432084 852 144 152 168
-13.2578309168106 75.5334571513078 854 170 178 194
-13.2888797011591 78.0446836583077 856 180 189 202
-13.3354528776819 80.6607189847958 859 166 175 188
-13.3665016620304 83.196488714322 861 147 154 165
-13.4130748385531 85.8425213127868 864 174 181 192
-13.4596480150759 88.5049160596024 867 176 185 196
-13.4596480150759 90.8692464963042 867 172 181 192
-13.4596480150759 93.233576933006 867 172 183 196
-13.5062211915986 95.9286959765234 870 156 167 182
-13.5683187602956 98.7531670620553 874 164 175 190
-13.5993675446441 101.368020508611 876 167 180 195
-13.5993675446441 103.756894167839 876 160 173 188
-13.6304163289926 106.388109762745 878 168 179 194
-13.6769895055154 109.154131449116 881 158 169 184
-13.7235626820381 111.936515283838 884 134 140 156
-13.7080382898639 114.217853098853 883 120 128 144
-13.7546114663866 117.022053131376 886 150 161 176
-13.7701358585609 119.573003129321 887 163 176 189
-13.8167090350836 122.404473409095 890 163 176 191
-13.8322334272579 124.971785555391 891 156 169 184
-13.8632822116064 127.687538916777 893 163 176 191
-13.9098553881292 130.559914567429 896 163 176 191
-13.9409041724777 133.300211151341 898 127 140 153
-13.9719529568262 136.051415834153 900 153 166 179
-14.0030017411747 138.813528615867 902 151 164 177
-14.0650993098717 141.899794075013 906 166 175 188
-14.1271968785687 145.00787573196 910 175 184 197
-14.1427212707429 147.651544570559 911 170 179 192
-14.1271968785687 149.971060731726 910 165 176 189
-14.1271968785687 152.452653231609 910 168 179 192
-14.1582456629172 155.274760557276 912 162 173 186
-14.2358676237884 158.626729294694 917 162 171 182
-14.2669164081369 161.478833892337 919 90 99 110
-14.2824408003112 164.163408101813 920 145 152 163
-14.2824408003112 166.672270848948 920 166 175 188
-14.3134895846597 169.548918669117 922 171 180 193
-14.3600627611824 172.62309414943 925 162 169 180
-14.4066359377052 175.713631778094 928 127 134 145
-14.4221603298794 178.436384333722 929 176 183 194
-14.4376847220537 181.164590938801 930 171 183 193
-14.4687335064022 184.095779253474 932 163 175 185
-14.515306682925 187.238130351915 935 161 174 189
-14.5463554672735 190.193861889114 937 163 176 191
-14.5618798594477 192.954792790894 938 163 178 193
-14.5929286437962 195.929613501169 940 164 179 194
-14.6239774281447 198.915342310345 942 164 179 194
-14.639501820319 201.698089409926 943 165 178 193
-14.639501820319 204.269673725739 943 167 180 195
-14.639501820319 206.841258041552 943 170 183 196
-14.6860749968417 210.079055005374 946 169 182 195
-14.7481725655387 213.558012024941 950 175 186 199
-14.8102701342357 217.058785242309 954 173 184 197
-14.82579452641 219.890618786943 955 173 186 201
-14.8413189185842 222.727906381028 956 174 185 200
-14.8413189185842 225.334942018268 956 172 183 198
-14.8413189185842 227.941977655508 956 154 165 178
-14.8413189185842 230.549013292748 956 171 180 191
-14.8568433107585 233.399936010458 957 176 184 191
-15.012087232501 238.475839724381 967 203 209 215
-12.0679175045061 -1.45707153929261 943 199 201 203
-11.8375648904222 1.09323893773199 925 220 220 220
-11.7863754206258 3.60010118986094 921 232 230 228
-11.7607806857275 6.09841910295467 919 249 246 240
-11.7351859508293 8.58582891714782 917 244 241 235
-11.6839964810329 11.0381506747738 913 243 240 234
-11.6328070112365 13.4686562345987 909 235 232 226
-11.5816175414401 15.8773455966224 905 244 241 235
-11.5432254390928 18.2844898138536 902 243 238 232
-11.5176307041945 20.6982699604678 900 241 236 229
-11.4792386018472 23.0754169057224 897 233 228 218
-11.4280491320508 25.407749575442 893 235 229 222
-11.3768596622544 27.7182660473604 889 233 228 221
-11.325670192458 30.0069663214777 885 239 234 228
-11.3000754575598 32.3471168005129 883 244 239 233
-11.2232912528651 34.5189182763087 877 235 230 223
-11.1721017830687 36.7421699570224 873 236 231 224
-11.0953175783741 38.8539768888649 867 244 239 232
-11.0569254760268 41.0756834247862 864 243 238 232
-11.0313307411286 43.3312961373419 862 238 232 225
-10.9929386387812 45.5230054012866 859 240 232 223
-10.9545465364339 47.6983525168804 856 237 229 220
-10.9033570666375 49.7988880849625 852 241 236 226
-10.8649649642902 51.9387838791294 849 244 239 232
-10.8137754944938 53.9984140763344 845 242 237 230
-10.7753833921465 56.1028585490744 842 244 238 231
-10.72419392235 58.1215833754022 838 233 227 221
-10.6858018200027 60.1905765267152 835 227 224 220
-10.6985991874518 62.542453719724 836 189 189 191
-10.7369912897991 65.0548621066566 839 159 164 171
-10.8265728619429 67.9046950297877 846 174 179 190
-10.8649649642902 70.4607358123226 849 171 179 195
-10.8905596991884 72.9474190967962 851 170 178 194
-10.8905596991884 75.2681171378957 851 169 180 195
-10.9161544340866 77.7711625707201 853 165 176 189
-10.9417491689848 80.2851161024452 855 117 128 141
-10.9929386387812 83.0032332236964 859 184 191 202
-11.0313307411286 85.6438117727109 862 172 179 190
-11.0569254760268 88.1986706753131 864 141 148 159
-11.0441281085777 90.4500112183512 863 182 189 200
-11.0313307411286 92.695897711939 862 175 186 199
-11.0697228434759 95.3773816318307 865 168 179 192
-11.1209123132723 98.1882175937369 869 151 162 177
-11.1593044156196 100.905152835055 872 166 179 194
-11.1848991505178 103.520006281611 874 161 174 189
-11.210493885416 106.145767827067 876 158 169 184
-11.2232912528651 108.658539478859 877 157 165 181
-11.2360886203142 111.176765180102 878 162 169 182
-11.2232912528651 113.441740846766 877 150 156 172
-11.2488859877633 116.097499664198 879 158 169 184
-11.2744807226616 118.764166580532 881 152 163 178
-11.325670192458 121.716807828146 885 151 164 179
-11.3512649273562 124.41074499173 887 150 163 178
-11.3768596622544 127.115590254215 889 148 161 176
-11.4152517646017 129.977057805967 892 158 171 186
-11.453643866949 132.854887506069 895 138 151 166
-11.4792386018472 135.597911114706 897 139 150 165
-11.5176307041945 138.505738086785 900 154 165 178
-11.5432254390928 141.273304917949 902 147 156 169
-11.5944149088892 144.370478475995 906 31 40 53
-11.6072122763383 147.003239215694 907 50 59 72
-11.6072122763383 149.476650641402 907 150 161 176
-11.6200096437874 152.117592455276 908 163 174 189
-11.6456043786856 154.934245731492 910 159 170 183
-11.6839964810329 157.934791544226 913 123 132 143
-11.696793848482 160.600276580627 914 161 168 179
-11.7095912159311 163.271215666477 915 169 176 187
-11.7223885833802 165.947608801779 916 149 158 171
-11.7479833182784 168.813348523047 918 159 168 181
-11.7863754206258 171.87661590446 921 147 156 169
-11.811970155524 174.766898848255 923 157 166 179
-11.8247675229731 177.476016280258 924 171 180 191
-11.8375648904222 180.190587761711 925 159 170 183
-11.8503622578713 182.910613292614 926 165 176 189
-11.8887543602186 186.036602242705 929 146 159 172
-11.9143490951168 188.975971631553 931 146 159 172
-11.939943830015 191.926249119301 933 155 170 185
-11.9527411974641 194.678998946906 934 160 175 190
-11.9655385649132 197.437202823962 935 166 179 194
-11.9911332998114 200.414750558962 937 167 180 195
-12.0167280347096 203.403206392862 939 168 181 196
-12.0295254021588 206.183226467719 940 170 181 194
-12.055120137057 209.190771474696 942 166 177 190
-12.0807148719552 212.209224580573 944 157 166 179
-12.1319043417516 215.69363564959 948 173 184 197
-12.1574990766498 218.739359002719 950 175 188 203
-12.183093811548 221.795990454748 952 174 187 202
-12.1958911789971 224.627823999382 953 171 184 197
-12.1958911789971 227.226678562447 953 172 183 196
-12.1702964440989 229.34321301402 951 169 181 191
-12.1574990766498 231.692726447163 950 170 178 185
-12.1958911789971 235.02324225164 953 169 177 184
-9.4157704469015 -1.4447103809529 935 190 190 190
-9.32513736238587 1.09442081766468 926 175 175 173
-9.29492633421399 3.6079189991766 923 240 239 235
-9.26471530604211 6.10505503233765 920 247 244 238
-9.23450427787024 8.58582891714782 917 243 240 234
-9.1942229069744 11.0381506747738 913 241 238 232
-9.16401187880253 13.4834732381571 910 244 241 235
-9.12373050790669 15.8948896249059 906 243 238 232
-9.09351947973481 18.3047608668623 903 242 237 230
-9.06330845156294 20.6982699604678 900 241 236 226
-9.03309742339106 23.0754169057224 897 232 227 217
-8.99281605249523 25.407749575442 893 234 229 219
-8.96260502432335 27.7494451992697 890 234 229 222
-8.92232365342751 30.0408724981121 886 243 238 232
-8.9021829679796 32.3837500018725 884 243 238 231
-8.8518312543598 34.5976387284781 879 238 233 226
-8.81154988346397 36.8263444586421 875 242 237 230
-8.74105748439626 38.8987911643999 868 242 237 230
-8.71084645622438 41.1232247250464 865 242 236 229
-8.67056508532854 43.2810278123566 861 237 231 224
-8.64035405715667 45.4700100515761 858 231 223 214
-8.61014302898479 47.6426301424448 855 240 232 223
-8.59000234353687 49.8573374841233 853 244 239 229
-8.559791315365 51.9999603030153 850 247 242 235
-8.51950994446916 54.0623175249454 846 245 239 232
-8.47922857357333 56.1028585490744 842 239 231 222
-8.43894720267749 58.1215833754022 838 238 230 221
-8.40873617450561 60.1905765267152 835 232 226 219
-8.39866583178166 62.3928306247007 834 226 221 215
-8.41880651722957 64.8222463899462 836 184 184 186
-8.46915823084937 67.5033670449781 841 175 177 188
-8.48929891629728 69.9627800822002 843 168 176 192
-8.5094396017452 72.4331012183229 845 171 174 190
-8.5094396017452 74.7374371110715 845 175 178 192
-8.51950994446916 77.1329466996826 846 170 181 194
-8.53965062991708 79.6278110583316 848 179 182 196
-8.56986165808896 82.230211261194 851 170 175 185
-8.60007268626083 84.8489736124073 854 169 174 184
-8.63028371443271 87.4840981119715 857 89 93 103
-8.64035405715667 89.92596712091 858 131 136 146
-8.66049474260459 92.4808260235123 860 174 181 192
-8.67056508532854 94.9363301560766 861 166 173 184
-8.69070577077646 97.5102782317548 863 147 154 165
-8.71084645622438 100.095134406334 865 159 166 177
-8.74105748439626 102.809342622927 868 161 168 179
-8.76119816984417 105.418742020032 870 149 154 165
-8.77126851256813 107.915151523474 871 156 160 171
-8.78133885529209 110.417015076366 872 159 163 173
-8.79140919801605 112.924332678708 873 141 145 156
-8.80147954074001 115.4371043305 874 154 159 170
-8.82162022618793 118.090136123207 876 156 161 172
-8.84176091163584 120.754076014816 878 158 165 176
-8.87197193980772 123.569184146239 881 153 160 171
-8.9021829679796 126.400654426014 884 156 163 174
-8.94246433887543 129.394201044505 888 156 165 178
-8.97267536704731 132.261122645707 891 148 157 170
-8.99281605249523 134.993238155443 893 157 166 179
-9.01295673794314 137.736261764081 895 158 165 176
-9.0230270806671 140.333571182353 896 156 161 172
-9.04316776611502 143.095683964066 898 147 152 163
-9.0733787942869 146.030781183396 901 157 162 173
-9.08344913701086 148.652633824194 902 155 162 173
-9.10358982245877 151.44747090261 904 159 166 177
-9.12373050790669 154.253216079925 906 161 169 178
-9.14387119335461 157.069869356142 908 161 166 176
-9.13380085063065 159.370296344232 907 151 156 166
-9.13380085063065 161.84370776994 907 140 144 154
-9.15394153607857 164.679450219232 909 163 168 179
-9.18415256425044 167.709993303943 912 164 169 180
-9.21436359242232 170.756898537004 915 160 168 177
-9.23450427787024 173.630819332448 917 160 168 177
-9.2445746205942 176.3235746161 918 163 171 180
-9.26471530604211 179.216584584621 920 173 178 188
-9.27478564876607 181.922974991898 921 172 177 187
-9.29492633421399 184.835074133495 923 168 173 183
-9.31506701966191 187.758081373992 925 167 176 187
-9.32513736238587 190.486287979071 926 162 173 186
-9.33520770510983 193.2199486336 927 157 168 181
-9.34527804783379 195.959063337579 928 166 177 190
-9.3654187332817 198.917521899503 930 173 182 195
-9.38555941872962 201.886888560328 932 169 180 193
-9.38555941872962 204.428475604164 932 176 185 196
-9.39562976145358 207.19213353067 933 176 185 196
-9.40570010417754 209.961245506626 934 182 189 200
-9.44598147507337 213.418386328392 938 180 187 198
-9.47619250324525 216.667091391114 941 168 177 188
-9.50640353141713 219.932158602187 944 167 176 187
-9.51647387414108 222.74217594902 945 174 183 194
-9.52654421686504 225.557647345304 946 171 181 190
-9.51647387414108 227.896252679546 945 171 179 188
-9.50640353141713 230.229403964339 944 167 173 179
-9.536614559589 233.543557620465 947 166 171 177
-9.63731798682859 238.619461334388 957 168 174 176
-6.83662905689452 -1.43852980178305 931 192 194 194
-6.79991246690045 1.09442081766468 926 228 227 223
-6.77788251290402 3.6079189991766 923 242 239 235
-6.76319587690639 6.11169096172062 921 245 242 236
-6.73382260491114 8.58582891714782 917 247 244 238
-6.70444933291589 11.0381506747738 913 241 238 232
-6.68976269691827 13.4982902417155 911 244 241 235
-6.66038942492302 15.9124336531895 907 243 238 232
-6.64570278892539 18.3453029728797 905 242 237 230
-6.60898619893133 20.6982699604678 900 242 237 227
-6.57961292693608 23.0496918032634 896 237 229 220
-6.55758297293964 25.407749575442 893 235 227 218
-6.5355530189432 27.7494451992697 890 232 226 219
-6.50617974694795 30.0408724981121 886 246 241 235
-6.48414979295151 32.3471168005129 883 238 233 226
-6.45477652095626 34.5976387284781 879 235 230 223
-6.42540324896101 36.8263444586421 875 243 238 231
-6.3593133869717 38.8091626133299 866 242 237 230
-6.33728343297526 41.028142124526 863 240 234 227
-6.31525347897882 43.2307594873713 860 235 227 220
-6.3005668429812 45.4700100515761 858 233 225 216
-6.27853688898476 47.6426301424448 855 239 234 224
-6.24916361698951 49.7404386858018 851 248 242 235
-6.23447698099188 51.9387838791294 849 245 239 232
-6.20510370899663 53.9984140763344 845 238 233 223
-6.17573043700139 56.0362280757382 841 234 226 217
-6.15370048300495 58.1215833754022 838 240 231 220
-6.13167052900851 60.1905765267152 835 238 231 220
-6.1243272110097 62.3928306247007 834 234 228 221
-6.13167052900851 64.7447078177095 835 228 224 222
-6.16104380100376 67.3428358510542 839 175 174 178
-6.17573043700139 69.7967948388261 841 160 167 180
-6.19776039099782 72.3473815719107 844 158 160 171
-6.20510370899663 74.7374371110715 845 167 169 180
-6.21244702699545 77.1329466996826 846 164 167 183
-6.21244702699545 79.4400096171563 846 168 169 183
-6.21979034499426 81.8437002799428 847 173 172 184
-6.2418202989907 84.4515545322555 850 159 159 169
-6.26385025298714 87.0757709329191 853 183 183 183
-6.27853688898476 89.6115406624453 855 184 184 186
-6.3005668429812 92.2657543350855 858 180 182 193
-6.31525347897882 94.826067287138 860 173 179 182
-6.33728343297526 97.5102782317548 863 176 177 181
-6.34462675097407 99.9794174879448 864 155 156 162
-6.3593133869717 102.572454736699 866 164 167 181
-6.36665670497051 105.055229116515 867 140 143 149
-6.36665670497051 107.419559553217 867 163 166 172
-6.38134334096814 110.037140024497 869 164 167 173
-6.39602997696576 112.665628594678 871 161 163 174
-6.41071661296339 115.30502526376 873 161 166 172
-6.43274656695982 118.090136123207 876 153 158 164
-6.44743320295745 120.754076014816 878 150 155 161
-6.46211983895508 123.428924005324 880 152 155 169
-6.46946315695389 125.971692929093 881 157 161 172
-6.48414979295151 128.665630092678 883 156 161 167
-6.50617974694795 131.518916570254 886 155 160 166
-6.52820970094439 134.388565196181 889 153 158 164
-6.54289633694201 137.120680705917 891 153 158 164
-6.55023965494083 139.707082025289 892 150 153 159
-6.56492629093845 142.458286708101 894 146 149 155
-6.57961292693608 145.220399489815 896 144 147 153
-6.5942995629337 147.993420370429 898 158 163 169
-6.60898619893133 150.777349349943 900 146 151 157
-6.63101615292777 153.74244384125 903 159 165 171
-6.63101615292777 156.204947168057 903 151 156 162
-6.63101615292777 158.667450494864 903 154 159 165
-6.62367283492895 160.951515334604 902 164 169 175
-6.64570278892539 163.954788172063 905 167 172 179
-6.66773274292183 166.974423157873 908 163 169 176
-6.68241937891945 169.823800730791 910 150 156 162
-6.69710601491708 172.684086402609 912 176 181 188
-6.70444933291589 175.363206562636 913 162 167 174
-6.72647928691233 178.437382042948 916 174 179 186
-6.73382260491114 181.132864351325 917 177 182 188
-6.74850924090877 184.034055394021 919 178 183 189
-6.74850924090877 186.540191116431 919 147 152 158
-6.76319587690639 189.457744307477 921 174 179 185
-6.7705391949052 192.177769838381 922 178 183 189
-6.78522583090283 195.114412202504 924 179 184 190
-6.79256914890164 197.848072857033 925 161 166 172
-6.80725578489927 200.803804394231 927 175 180 186
-6.81459910289808 203.551100172386 928 179 184 190
-6.81459910289808 206.081779117322 928 180 185 191
-6.81459910289808 208.612458062258 928 182 185 191
-6.83662905689452 211.825711803553 931 180 183 189
-6.87334564688858 215.515831606889 936 174 179 185
-6.90271891888383 219.000242675906 940 178 183 189
-6.91006223688264 221.799351923839 941 171 176 182
-6.91006223688264 224.365482190202 941 171 177 180
-6.91006223688264 226.931612456564 941 171 174 178
-6.91740555488146 229.741629803398 942 177 178 182
-6.93943550887789 233.050329410073 945 174 176 176
-7.01286868886602 238.120779074546 955 168 172 172
-4.29315274450971 -1.43698465699059 930 192 195 192
-4.27468757141504 1.09442081766468 926 240 239 235
-4.26083869159404 3.6079189991766 923 240 237 231
-4.25160610504671 6.11169096172062 921 248 243 237
-4.22852463867838 8.57646596303969 916 247 242 236
-4.21005946558371 11.0260606959406 912 241 236 230
-4.20082687903638 13.4834732381571 910 246 241 234
-4.18697799921538 15.9124336531895 907 241 236 229
-4.17312911939438 18.325031919871 904 240 235 228
-4.15466394629972 20.6982699604678 900 241 236 226
-4.14081506647872 23.0754169057224 897 236 228 219
-4.12234989338405 25.407749575442 893 235 227 218
-4.10388472028939 27.7182660473604 889 235 229 222
-4.08080325392106 29.9730601448432 884 247 241 234
-4.06695437410006 32.2738503977937 881 246 241 234
-4.04387290773172 34.4795580502239 876 231 226 219
-4.02540773463706 36.7000827062125 872 242 236 229
-4.00232626826873 38.8539768888649 867 241 235 228
-3.98847738844773 41.0756834247862 864 238 230 221
-3.97001221535306 43.2307594873713 860 235 227 218
-3.96077962880573 45.4700100515761 858 237 229 222
-3.9376981624374 47.5311853935736 853 244 238 231
-3.9238492826164 49.681989286641 850 241 235 228
-3.9100004027954 51.8164310313576 847 235 229 222
-3.90076781624807 53.9984140763344 845 241 233 224
-3.8823026431534 56.0362280757382 841 232 223 212
-3.87307005660607 58.1909408734635 839 238 229 218
-3.85922117678507 60.2626610495017 836 230 223 210
-3.8546048835114 62.4676421722123 835 232 223 210
-3.85922117678507 64.8222463899462 836 230 222 213
-3.87307005660607 67.3428358510542 839 141 137 121
-3.88691893642707 69.8797874605132 842 150 146 130
-3.8961515229744 72.3473815719107 844 156 143 128
-3.90538410952173 74.8258837822089 846 140 138 138
-3.9100004027954 77.2241203955451 847 146 144 144
-3.91461669606907 79.6278110583316 848 145 145 145
-3.91461669606907 81.9403280252556 848 146 144 144
-3.9238492826164 84.4515545322555 850 147 145 143
-3.9376981624374 87.0757709329191 853 142 139 135
-3.9515470422584 89.7163494819335 856 147 144 140
-3.96077962880573 92.2657543350855 858 143 139 139
-3.97462850862673 94.9363301560766 861 143 142 138
-3.98847738844773 97.6232681254185 864 148 146 144
-3.99309368172139 100.095134406334 865 142 142 132
-3.99309368172139 102.454010793585 865 142 139 135
-3.99770997499506 104.934058148676 866 128 125 119
-4.00694256154239 107.543457545781 868 140 139 125
-4.01617514808973 110.163765041787 870 130 127 123
-4.02540773463706 112.794980636693 872 131 130 126
-4.03464032118439 115.4371043305 874 131 129 127
-4.04848920100539 118.224942214672 877 126 124 122
-4.05772178755272 120.891609131006 879 110 109 105
-4.06233808082639 123.428924005324 880 117 118 114
-4.06233808082639 125.828705763453 880 112 113 109
-4.06695437410006 128.374201711947 881 106 106 104
-4.07618696064739 131.073592924982 883 98 102 104
-4.09003584046839 133.935060476733 886 101 102 106
-4.10388472028939 136.812890176836 889 94 95 99
-4.11311730683672 139.550459736023 891 88 89 93
-4.11773360011039 142.139588080119 892 86 87 91
-4.12696618665772 144.896246812382 894 93 94 98
-4.13158247993139 147.499010280104 895 75 79 81
-4.14543135975238 150.44228857361 898 88 92 94
-4.15466394629972 153.231671602575 900 86 90 90
-4.15928023957338 155.858978292823 901 77 81 81
-4.15466394629972 158.140316107838 900 85 87 89
-4.15928023957338 160.773076847537 901 87 89 91
-4.16851282612072 163.592457148478 903 74 80 82
-4.18236170594172 166.606638084838 906 77 83 85
-4.19159429248905 169.450561608305 908 65 71 73
-4.20082687903638 172.305393230674 910 76 80 82
-4.20544317231005 174.97905934125 911 75 79 81
-4.22390834540471 178.24258140753 915 84 86 88
-4.23775722522571 181.330392011469 918 74 76 78
-4.23775722522571 183.833800709153 918 96 98 98
-4.23314093195204 186.134227697244 917 95 95 95
-4.23775722522571 188.840618104521 918 108 108 108
-4.24698981177304 191.760898320293 920 109 109 107
-4.26083869159404 194.903249418735 923 114 114 112
-4.27007127814138 197.848072857033 925 106 108 110
-4.27007127814138 200.370570727793 925 115 119 121
-4.27468757141504 203.112412456498 926 113 117 119
-4.27468757141504 205.637637351983 926 121 125 127
-4.27468757141504 208.162862247468 926 138 136 134
-4.28853645123604 211.370661939313 929 134 136 138
-4.30238533105704 214.594823779509 932 115 117 119
-4.32085050415171 218.068326749626 936 108 112 114
-4.32546679742537 220.856527898658 937 98 102 104
-4.32546679742537 223.41175006612 937 128 130 130
-4.3346993839727 226.449292345073 939 125 127 127
-4.3485482637937 229.741629803398 942 131 129 127
-4.37162973016204 233.543557620465 947 134 133 129
-4.43625783599336 239.616825854072 961 121 122 116
-1.75513048157519 -1.43543951219813 929 210 213 209
-1.74757340738111 1.09323893773199 925 241 240 234
-1.74379487028407 3.6079189991766 923 243 240 234
-1.73812706463851 6.10505503233765 920 243 238 232
-1.73056999044443 8.57646596303969 916 246 241 235
-1.72490218479887 11.0381506747738 913 241 236 230
-1.71734511060479 13.4686562345987 909 247 242 235
-1.71356657350775 15.9124336531895 907 238 233 226
-1.70412023076515 18.2844898138536 902 239 234 227
-1.69656315657107 20.6522738050001 898 240 235 225
-1.69089535092551 23.0239667008044 895 234 226 217
-1.68522754527995 25.3792974482579 892 230 222 213
-1.67955973963438 27.7182660473604 889 233 227 220
-1.6720026654403 30.0069663214777 885 248 243 237
-1.66444559124622 32.2738503977937 881 246 241 235
-1.65688851705214 34.5189182763087 877 232 227 220
-1.64933144285806 36.7421699570224 873 246 240 233
-1.63988510011546 38.8987911643999 868 236 231 221
-1.63232802592138 41.0756834247862 864 239 231 222
-1.6247709517273 43.2307594873713 860 236 228 219
-1.62099241463026 45.4700100515761 858 237 229 220
-1.61154607188766 47.5311853935736 853 245 239 232
-1.6058782662421 49.681989286641 850 243 235 228
-1.59832119204802 51.7552546074717 846 233 225 216
-1.5964319234995 53.9984140763344 845 242 232 223
-1.58887484930542 56.0362280757382 841 230 223 212
-1.58509631220838 58.1909408734635 839 235 228 217
-1.58131777511134 60.3347455722882 837 232 225 214
-1.58131777511134 62.6172652672356 837 234 225 212
-1.58509631220838 65.0548621066566 839 197 186 173
-1.59076411785394 67.58363264194 842 154 140 121
-1.5964319234995 70.1287653255744 845 157 143 123
-1.59832119204802 72.5188208647351 846 156 142 122
-1.60398899769358 75.0912237956209 849 155 142 119
-1.60776753479062 77.5888151789951 851 146 139 116
-1.60965680333914 80.0034139406822 852 145 143 118
-1.60965680333914 82.3268390065068 852 144 142 118
-1.61154607188766 84.7496188423693 853 145 141 124
-1.6153246089847 87.2799345224453 855 146 142 126
-1.61910314608174 89.8211583014218 857 148 143 122
-1.62288168317878 92.3732901792989 859 149 142 119
-1.62854948882434 95.0465930250151 862 146 144 126
-1.6342172944699 97.7362580190822 865 137 134 118
-1.63610656301842 100.210851324722 866 138 136 118
-1.63610656301842 102.572454736699 866 138 135 119
-1.63988510011546 105.176400084354 868 137 133 116
-1.64555290576102 107.915151523474 871 139 135 121
-1.65122071140658 110.670265110944 874 136 134 116
-1.65499924850362 113.312388804751 876 133 128 121
-1.65688851705214 115.833341530719 877 135 130 124
-1.6625563226977 118.629360489067 880 129 124 118
-1.66444559124622 121.166675363386 881 128 123 116
-1.66633485979474 123.709444287155 882 129 128 114
-1.6625563226977 125.828705763453 880 116 113 107
-1.66444559124622 128.374201711947 881 120 117 111
-1.66822412834326 131.073592924982 883 119 116 110
-1.67389193398882 133.935060476733 886 114 109 103
-1.6814490081829 136.966785441376 890 109 104 98
-1.68711681382847 139.863704314555 893 102 97 91
-1.68900608237699 142.458286708101 894 101 98 92
-1.69089535092551 145.058323151098 895 87 86 80
-1.69467388802255 147.828617006987 897 90 89 83
-1.69656315657107 150.44228857361 898 95 95 85
-1.69845242511959 153.061414189683 899 98 98 90
-1.70034169366811 155.685993855206 900 88 89 85
-1.70223096221663 158.31602757018 901 92 93 89
-1.70600949931367 161.129953821671 903 94 94 92
-1.70789876786219 163.773622660271 904 95 98 95
-1.71167730495923 166.606638084838 906 90 95 92
-1.71545584205627 169.450561608305 908 92 97 93
-1.72112364770183 172.494739816642 911 93 96 93
-1.72490218479887 175.363206562636 913 96 96 94
-1.73056999044443 178.437382042948 916 99 97 95
-1.73245925899295 181.132864351325 917 104 102 100
-1.73245925899295 183.633546024285 917 116 115 111
-1.73056999044443 185.93124598765 916 122 119 115
-1.73434852754147 188.840618104521 918 128 125 119
-1.74001633318703 191.969334079337 921 128 125 119
-1.74379487028407 194.903249418735 923 123 120 114
-1.74568413883259 197.634183048539 924 129 124 117
-1.74757340738111 200.370570727793 925 132 127 120
-1.74946267592963 203.112412456498 926 129 126 120
-1.75135194447815 205.859708234653 927 132 129 123
-1.75324121302667 208.612458062258 928 140 137 131
-1.75890901867223 211.825711803553 931 136 131 125
-1.76268755576927 214.825075736354 933 131 126 120
-1.76835536141483 218.068326749626 936 118 115 109
-1.77024462996335 220.856527898658 937 112 109 103
-1.77213389851187 223.65018309714 938 117 112 105
-1.77780170415743 226.931612456564 941 110 105 98
-1.78346950980299 230.229403964339 944 124 119 113
-1.80236219528819 235.269856356835 954 116 111 105
0.787490806028549 -4.01583934655268 940 204 207 203
0.779951000438914 -1.43852980178305 931 218 219 215
0.775762219555783 1.09442081766468 926 242 241 235
0.772411194849279 3.60401009451877 922 242 239 233
0.770735682496027 6.10505503233765 920 241 236 230
0.767384657789522 8.57646596303969 916 244 239 233
