ply
format ascii 1.0
element vertex 594
property float x
property float y
property float z
property float nx
property float ny
property float nz
element face 0
property list uchar int vertex_indices
end_header
-62.5910937859529 134.868791416077 1058.80188796075 -0.129316 0.451885 -0.882653
-62.6441252874792 137.906400064558 1059.74740914936 -0.098565 0.456922 -0.884029
-62.7547144513953 141.09962339422 1061.69037009559 -0.100423 0.467289 -0.878383
-62.8077245425107 144.150864937531 1062.63564569022 -0.075076 0.479646 -0.874245
-62.8031684070719 147.051944957594 1062.58338328962 -0.074422 0.514686 -0.854143
-62.9137190322485 150.269707497952 1064.52590216667 -0.076846 0.503494 -0.860575
-62.9667034308708 153.337308515061 1065.47088304851 -0.072011 0.491448 -0.867925
-63.0196792653287 156.410362690102 1066.41576569275 -0.082433 0.400383 -0.912633
-63.0726465356223 159.488870023076 1067.3605500994 -0.078903 0.350781 -0.933127
-63.2406777457095 162.911325666007 1070.29962459572 -0.077186 0.352504 -0.932622
-63.2936193235101 166.006192472778 1071.24411428958 -0.087781 0.377197 -0.921964
-63.2890246493316 168.931811703537 1071.19140981981 -0.063328 0.408385 -0.910611
-63.3419533808856 172.034858247207 1072.13575215728 -0.085331 0.509099 -0.856468
-63.6824691665265 176.044127408195 1078.06498469938 -0.009819 0.803184 -0.59565
-64.5980819828622 181.914920225212 1093.96311351241 0.500122 -0.825231 -0.262434
-59.2698832926735 -46.8648462586957 1049.06867449158 0.027507 -0.951551 -0.306257
-58.8796071252213 -43.8397109217146 1042.01250177956 0.037196 -0.908324 -0.41661
-58.5996088648725 -40.8959822921408 1036.95827430197 0.032068 -0.86077 -0.507983
-58.3196534253455 -37.9795194522293 1031.90453801235 -0.012866 -0.862707 -0.50554
-57.9846403918281 -35.0741582589724 1025.85076236267 -0.034112 -0.880501 -0.472816
-57.7598710087568 -32.2283911413929 1021.79853899703 -0.018007 -0.87547 -0.482937
-57.314768479752 -29.3615927152426 1013.74497934003 0.004555 -0.8859 -0.463854
-57.0900847383242 -26.5703571769877 1009.69373835034 0.010514 -0.867763 -0.496867
-56.7552686805872 -23.7904186161771 1003.64222216535 -0.001155 -0.883455 -0.468514
-56.5857410210399 -21.0507927474907 1000.59215026807 -0.009133 -0.879588 -0.475649
-56.1959401647095 -18.3283076757605 993.541429742577 -0.000484 -0.896886 -0.442263
-55.8612696977666 -15.6410727998016 987.491583596704 0.006114 -0.904772 -0.425852
-55.5266506158098 -12.9865568714373 981.442326876402 -0.023928 -0.885514 -0.463995
-55.2471447949116 -10.3563848229794 976.393748060525 -0.023546 -0.795131 -0.60598
-55.0227393888255 -7.742376917529 972.34569979268 -0.011475 -0.556086 -0.831045
-54.9635281751212 -5.10869696694586 971.298015198995 0.014119 -0.184401 -0.98275
-54.9593745554072 -2.46391536970808 971.250369965368 0.03267 0.198187 -0.97962
-55.1203551789246 0.238710378189616 974.202400742734 0.031291 0.512293 -0.85824
-55.2813101099488 2.95769559988466 977.154136807314 0.037131 0.630187 -0.775555
-55.3321669813211 5.64357121240554 978.105990626971 0.033402 0.608289 -0.793013
-55.3830152885291 8.33489998285886 979.057746209032 0.023168 0.539577 -0.841617
-55.5439102704029 11.0920573100811 982.008794610447 0.008217 0.556857 -0.830568
-55.5947328851178 13.7997455543317 982.960255479723 -0.002483 0.574427 -0.818552
-55.8106041014204 16.6198095285668 986.910409984041 0.020788 0.527013 -0.849603
-55.86139674156 19.3465838255811 987.861527021734 0.037703 0.501937 -0.864082
-55.9671913086217 22.1199052958109 989.812044875117 0.062508 0.503545 -0.861705
-56.0179625383504 24.8603124876562 990.762916318822 0.065089 0.50059 -0.863234
-56.1237271308368 27.6527200106496 992.713090340621 0.046068 0.566119 -0.823035
-56.2294745949945 30.4560338495079 994.66306788723 0.047076 0.587858 -0.807593
-56.390198293581 33.322254335379 997.612151536743 0.049847 0.573877 -0.817423
-56.4959072189991 36.1501073849333 999.561687014174 0.051692 0.547128 -0.835451
-56.6015990160884 38.9888667503525 1001.51102601641 0.03841 0.532476 -0.845573
-56.6522931683379 41.7783523635899 1002.46101332176 0.016813 0.542331 -0.839996
-56.757954990852 44.6361977817727 1004.41000849242 -0.009537 0.580052 -0.814523
-56.918571637384 47.5705827417995 1007.357864172 -0.05497 0.553022 -0.831351
-57.0241949211585 50.4529673706783 1009.30641727348 -0.097646 0.490329 -0.86605
-57.0198743002395 53.2040855475988 1009.25685640674 -0.128794 0.455649 -0.880793
-57.0155536793206 55.9552037245193 1009.20729554001 -0.147866 0.482356 -0.863405
-57.1211427064376 58.8594009851279 1011.15545569111 -0.17827 0.527256 -0.830795
-57.3366156890975 61.9330368032219 1015.10104214726 -0.252539 0.541757 -0.8017
-57.4421618953927 64.8644998534927 1017.04871111038 -0.256926 0.451032 -0.854728
-57.4927489955878 67.7221499408857 1017.99747044579 -0.153689 0.368331 -0.916903
-57.5433275316185 70.5852531862112 1018.94613154361 -0.072604 0.408686 -0.909783
-57.6488309170919 73.5439820261442 1020.89330931875 0.039348 0.49818 -0.86618
-57.8092463057615 76.6065161975836 1023.83885641484 0.01046 0.579855 -0.814653
-57.9147111524954 79.5897842482127 1025.78559212081 -0.07744 0.559758 -0.82503
-58.0201588709005 82.5839586147066 1027.73213135159 -0.140782 0.566235 -0.812132
-58.0706731756985 85.4879605445255 1028.68005566745 -0.167906 0.555559 -0.814348
-58.1211789163321 88.3974156322768 1029.6278817457 -0.138408 0.538998 -0.830857
-58.2265838139154 91.418855788433 1031.57392978851 -0.087722 0.553013 -0.828542
-58.33197158317 94.4512022604541 1033.51978135612 -0.02363 0.589039 -0.807759
-58.4373422240959 97.4944550483402 1035.46543644855 0.026274 0.602077 -0.798006
-58.5975906115605 100.663325799462 1038.40906791153 0.020245 0.552662 -0.833159
-58.7578133065321 103.848556024382 1041.35240466173 -0.055063 0.511227 -0.85768
-58.7533513769012 106.689651307188 1041.30122287468 -0.097106 0.473025 -0.875682
-58.8037714758912 109.653637974263 1042.24806657698 -0.131266 0.445396 -0.885659
-58.9639385037945 112.874313725744 1045.19076478281 -0.136193 0.42877 -0.893089
-59.1240798392046 116.111348951021 1048.13316827586 -0.138211 0.393413 -0.908914
-59.1195879349985 118.971530286591 1048.08164265723 -0.117851 0.400862 -0.908527
-59.2248258313768 122.09930702243 1050.02577506693 -0.08728 0.452773 -0.887343
-59.2751859812163 125.101465795033 1050.97193110607 -0.074388 0.494376 -0.866059
-59.4352502391473 128.387579441703 1053.91345046075 -0.051551 0.476191 -0.877829
-59.5404367505394 131.548075125136 1055.85699344488 -0.07371 0.46863 -0.880314
-59.6456061336029 134.719477124435 1057.80033995382 -0.061769 0.465997 -0.882628
-59.7507583883376 137.901785439598 1059.74348998757 -0.05815 0.480364 -0.87514
-59.8010543069445 140.944842896695 1060.68890924475 -0.056986 0.469758 -0.880954
-59.9061765871039 144.146237264622 1062.63171544692 -0.058382 0.488216 -0.870768
-60.0112817389347 147.358537948414 1064.57432517389 -0.04905 0.484344 -0.873502
-60.1163697624367 150.58174494807 1066.51673842568 -0.072441 0.48662 -0.870605
-60.1117964986692 153.493731283998 1066.46427954989 -0.056627 0.490524 -0.869586
-60.1620410322898 156.569507688689 1067.40910938149 -0.020327 0.408651 -0.912464
-60.1574634864401 159.484220603583 1067.35660138691 -0.040959 0.360764 -0.931757
-60.3173136402621 162.906663198564 1070.29566480172 0.000749 0.353673 -0.935369
-60.3127232481658 165.829555850357 1070.24300945074 0.00133 0.383561 -0.923515
-60.4177341941886 169.101841271406 1072.18453856417 0.027662 0.41626 -0.908825
-60.4679316249053 172.207610044725 1073.12882808901 0.043506 0.574262 -0.817514
-60.901665225724 176.579878773901 1081.05197733851 0.107794 0.860233 -0.498377
-61.9379963641708 183.007410103331 1099.94073432117 0.133449 -0.985801 0.101923
-56.4670851804888 -46.8964748014113 1050.06553037291 0.060642 -0.952945 -0.297016
-56.09589386224 -43.8685824402475 1043.00933439895 0.078333 -0.910626 -0.40574
-55.777144453363 -40.9004838348676 1036.95445117996 0.063487 -0.868627 -0.491382
-55.5108241076114 -37.9839992483728 1031.90073335953 0.003273 -0.868791 -0.495167
-55.0874263945106 -35.0462749745675 1023.84592616449 0.012481 -0.889507 -0.456752
-54.9259427645988 -32.219385531012 1020.79429354719 0.030011 -0.880062 -0.47391
-54.5550254996094 -29.3659942236866 1013.74124117629 0.044336 -0.890041 -0.453718
-54.3936103830125 -26.5827300435906 1010.69039445975 0.041846 -0.865095 -0.49986
-54.0751521557237 -23.8000388079139 1004.63885131899 0.005492 -0.888457 -0.458926
-53.8614492847134 -21.0551377148182 1000.58846012422 -0.010157 -0.877656 -0.479183
-53.4907375596686 -18.3326221978716 993.537765455591 -0.023141 -0.89889 -0.437562
-53.1200857837744 -15.6482787864521 986.487758450132 -0.018582 -0.905884 -0.423118
-52.8018330964302 -12.9964633411542 980.438573011653 -0.000795 -0.877263 -0.480008
-52.588301508707 -10.3606254067075 976.390146568779 0.031334 -0.769556 -0.63781
-52.4271347528765 -7.73550280665252 973.342148742505 0.092037 -0.568636 -0.817424
-52.3183199826921 -5.11291580409073 971.294432176438 0.066983 -0.216282 -0.974031
-52.3141663629781 -2.46813420685295 971.24678694281 0.084023 0.147262 -0.985522
-52.5192836592188 0.253755527331478 975.19869494849 0.078393 0.522589 -0.848973
-52.6720532518957 2.97545428004281 978.15037081276 0.104189 0.617449 -0.779681
-52.7724879872551 5.68878231438239 980.101961892013 0.086855 0.548657 -0.831524
-52.7682958288015 8.35810312231618 980.053874589207 0.072969 0.528841 -0.845578
-52.8164042710078 11.0576072803515 981.005479121038 0.02612 0.557018 -0.83009
-52.9168004676276 13.7954745253871 982.956628131113 0.016588 0.568566 -0.82247
-53.1217636089099 16.6155211023556 986.906767860081 0.024545 0.54229 -0.839833
-53.1698292302945 19.3422910500532 987.857881203936 0.043327 0.503951 -0.862645
-53.270169759846 22.1156038216498 989.808391669643 0.071119 0.482593 -0.872953
-53.3182139708197 24.8560066641785 990.759259419511 0.055618 0.487896 -0.871128
-53.366249617629 27.6018626646397 991.710028931783 0.025222 0.548762 -0.835598
-53.4665473263587 30.4024412258984 993.660048209515 0.006019 0.581284 -0.813678
-53.6190942507621 33.2659220848534 996.609169896312 0.000741 0.581297 -0.813691
-53.7716154826726 36.1457624176058 999.557996870324 0.014588 0.536584 -0.843721
-53.8195954624135 38.9270639446279 1000.50812783823 0.006025 0.524489 -0.851396
-53.8153133802342 41.6536429108524 1000.45900904067 -0.011927 0.532164 -0.846557
-53.9155297294024 44.5060264724694 1002.40809506125 -0.045267 0.540433 -0.840169
-54.1202188174253 47.5005741032763 1006.35509118718 -0.071171 0.535049 -0.841818
-54.2726329972812 50.4485789101843 1009.30269019125 -0.085377 0.471882 -0.877518
-54.2683123763622 53.1996970871048 1009.25312932452 -0.123354 0.422011 -0.898159
-54.3162238427883 56.0246238775865 1010.20247439166 -0.147311 0.472688 -0.86883
-54.3641267450501 58.8550038260006 1011.15172122121 -0.166724 0.522926 -0.835914
-54.5686916526897 61.928622246828 1015.097292902 -0.209722 0.562135 -0.800013
-54.5643453392776 64.6960998975459 1015.04743732249 -0.116647 0.546376 -0.829377
-54.6644289438984 67.6330074071159 1016.99500066034 -0.045525 0.486026 -0.872758
-54.7122847432561 70.4933797241585 1017.94370718311 -0.003242 0.488848 -0.872363
-54.8645447681536 73.5395413738505 1020.88953791048 0.033709 0.51938 -0.853878
-54.9645769877882 76.5091678310152 1022.83651182276 -0.001539 0.563465 -0.826139
-55.064592079094 79.4897006040448 1024.78328925985 -0.038669 0.550362 -0.83403
-55.1645900420711 82.4811396929392 1026.72987022175 -0.089968 0.546708 -0.832476
-55.2123816101962 85.3824106944752 1027.67783996257 -0.105243 0.548221 -0.829685
-55.3123495985981 88.3929358361333 1029.62407709288 -0.094463 0.583781 -0.806397
-55.4123004586712 91.4143672936562 1031.57011774801 -0.024504 0.608853 -0.792905
-55.5644106106924 94.5559592071661 1034.51422931746 0.036639 0.625481 -0.779379
-55.6643229320259 97.6019298753851 1036.45982790341 0.034029 0.593964 -0.803771
-55.8163859811431 100.773514157523 1039.40339916609 0.005512 0.525038 -0.851061
-55.9162597637371 103.844024036438 1041.34855568286 -0.046242 0.477779 -0.877262
-55.9117978341062 106.685119319244 1041.29737389581 -0.083499 0.44956 -0.889339
-56.0638009340729 109.89487570691 1044.24025749532 -0.103869 0.42942 -0.897112
-56.1636276137628 112.995377954453 1046.18487370532 -0.104219 0.431132 -0.89625
-56.2112907194225 115.978446324976 1047.1313698822 -0.092446 0.407526 -0.908502
-56.2589452609179 118.966967853431 1048.07776782149 -0.058954 0.445207 -0.893485
-56.3065912382489 121.960942539819 1049.02406752319 -0.029983 0.475551 -0.879177
-56.4584958503255 125.233410243707 1051.96582139035 -0.009206 0.513979 -0.857753
-56.5061161351634 128.243744403892 1052.91182637926 -0.017858 0.496846 -0.867655
-56.6579779264182 131.543477897443 1055.85308905845 -0.015362 0.474441 -0.880153
-56.705572518763 134.570171531426 1056.79879933457 -0.017039 0.476739 -0.87888
-56.8052750180698 137.74974456899 1058.74199109944 -0.041099 0.45581 -0.889128
-56.9049603890478 140.940223922419 1060.68498638912 -0.045703 0.473916 -0.879383
-56.9525207247352 143.988730188131 1061.63030371487 -0.083429 0.470028 -0.8787
-57.052176121138 147.198295594323 1063.57295517297 -0.089388 0.508932 -0.856153
-57.2039137320096 150.577099877894 1066.51279340703 -0.071341 0.481804 -0.87337
-57.2514355289574 153.650145354303 1067.45766866359 -0.083635 0.484225 -0.870937
-57.2989487617408 156.728643988643 1068.40244568256 -0.034844 0.400995 -0.915417
-57.2943669338089 159.646083482503 1068.34988856918 -0.002345 0.381302 -0.924448
-57.3939495348146 162.902000731122 1070.29170500772 0.022314 0.3845 -0.922855
-57.441437075105 165.99685883926 1071.23618731391 0.047667 0.427661 -0.902682
-57.488916051231 169.09717010533 1072.1805713825 0.102399 0.461766 -0.881071
-57.6405251996372 172.557771757888 1075.11893605263 0.092676 0.644257 -0.759173
-58.1044991723909 177.115604043707 1084.0389478146 0.099922 0.875316 -0.473115
-59.2972473244763 184.28271956186 1106.91525198585 0.03878 -0.995244 0.089361
-53.6588330307939 -46.9281120427602 1051.06237886656 0.029372 -0.943051 -0.331349
-53.3067265617485 -43.8974626574137 1044.00615963067 0.075309 -0.912506 -0.402071
-53.0043349833199 -40.9266113771677 1037.95124945591 0.086944 -0.851497 -0.517101
-52.7516454492615 -38.0073784651235 1032.89750098586 0.013032 -0.869365 -0.493998
-52.3500596041191 -35.0668928178188 1024.84267422273 0.01046 -0.887015 -0.461622
-52.1967527483904 -32.2372637473471 1021.79100356815 0.041295 -0.865213 -0.499702
-51.8449203326044 -29.3811154158389 1014.73792793531 0.060178 -0.880626 -0.469975
-51.6420484591351 -26.5871185040846 1010.68666737753 0.057371 -0.875254 -0.480248
-51.2903230954037 -23.7991346467321 1003.63481971462 0.016236 -0.895102 -0.445566
-51.0875325814958 -21.056942735336 999.584492413996 -0.013605 -0.890329 -0.455114
-50.7855349546277 -18.3369367199826 993.534101168604 -0.027268 -0.893961 -0.447315
-50.433972310019 -15.6525628633466 986.484120020009 0.006827 -0.901768 -0.432166
-50.1320817352053 -13.0007213221489 980.434956744556 0.056852 -0.874925 -0.480909
-49.9294582225025 -10.3648659904355 976.386545077033 0.101445 -0.764703 -0.636347
-49.726868966457 -7.75082329045203 972.33852635989 0.115321 -0.561219 -0.819594
-49.6731117902629 -5.1171346412356 971.290849153881 0.121637 -0.272392 -0.954467
-49.7185531628647 -2.45580693804403 972.24313765504 0.114157 0.109863 -0.987369
-49.912758102003 0.268791977840053 976.194981766571 0.116098 0.538787 -0.834404
-50.0077559281809 2.97120499768144 978.146761933339 0.121542 0.615685 -0.778562
-50.1027366260302 5.68452433338772 980.098345624917 0.113646 0.541043 -0.833281
-50.1481223315637 8.3812975631402 981.049995581707 0.093954 0.491868 -0.865586
-50.2430730548377 11.1137029516101 983.001235441702 0.040398 0.529706 -0.847219
-50.3875759496056 13.889920235696 985.951917848508 -0.015784 0.565625 -0.824511
-50.48248813414 16.6468648348618 987.902715639324 0.017257 0.561087 -0.827577
-50.478261719029 19.3379982745254 987.854235386138 0.022007 0.527331 -0.849375
-50.5235917574941 22.0702170308388 988.805246798561 0.049273 0.503491 -0.862594
-50.6184654032889 24.8517008407007 990.7556025202 0.057906 0.488977 -0.870373
-50.7133219207549 27.6440909664275 992.705761766648 0.049785 0.528699 -0.847348
-50.8081613098923 30.4473874080192 994.655724537907 0.023638 0.571225 -0.820453
-50.9029835707009 33.2615901654758 996.605490833974 0.002296 0.571839 -0.820362
-50.9977887031808 36.0866992387973 998.555060654852 -0.034126 0.53212 -0.845981
-51.0430459462489 38.8652698375365 999.505237047717 -0.04659 0.505044 -0.861835
-51.1378211041535 41.7094649636216 1001.45446303701 -0.071592 0.512188 -0.855884
-51.2325791337294 44.5645664055715 1003.40349255112 -0.08278 0.531364 -0.84309
-51.3273200349766 47.4305741633864 1005.35232559003 -0.08934 0.53035 -0.843058
-51.4715574406495 50.3758393433782 1008.29996263139 -0.078483 0.464049 -0.882326
-51.4672411018127 53.1242309413325 1008.25045088345 -0.074071 0.415291 -0.906668
-51.5619349001559 56.0202310677758 1010.19874361559 -0.072202 0.473361 -0.877905
-51.6071107836626 58.8506066668733 1011.14798675131 -0.080835 0.512605 -0.854811
-51.7512711118562 61.8449502682572 1014.09473965431 -0.084532 0.577332 -0.812122
-51.7469290805264 64.6097013400088 1014.04493319359 -0.072311 0.551782 -0.830848
-51.8415629297191 67.5438735719793 1015.99253826256 -0.065319 0.52046 -0.851384
-51.9856633087622 70.5763892788903 1018.9386035024 -0.037729 0.502739 -0.863615
-52.1297379953122 73.6252644595986 1021.88437402945 -0.024167 0.516195 -0.85613
-52.2737869893692 76.6904991141043 1024.82984984371 -0.058161 0.521592 -0.851211
-52.3188686670679 79.5808594504588 1025.77801236588 -0.066401 0.525586 -0.848145
-52.4134083104527 82.5750164196862 1027.72453682131 -0.075445 0.532704 -0.842932
-52.5079308255088 85.5800797047785 1029.67086480155 -0.051595 0.570165 -0.819908
-52.5529782465501 88.4922526728627 1030.61863437333 -0.015145 0.613415 -0.789615
-52.598017103427 91.4098787988794 1031.56630570752 0.016463 0.635964 -0.771543
-52.741946199183 94.5514576644394 1034.51040619545 0.024648 0.629181 -0.776868
-52.9352947218853 97.8213723735684 1038.45242654747 -0.00791 0.549942 -0.835165
-53.0297273132156 100.883693816951 1040.39772303296 -0.066003 0.496887 -0.865302
-53.074706220942 103.839492048495 1041.34470670399 -0.08151 0.453054 -0.887749
-53.0702442913111 106.680587331301 1041.29352491694 -0.104459 0.434711 -0.894491
-53.2140663350126 109.890330671017 1044.23639743493 -0.088764 0.43139 -0.897788
-53.2590152681638 112.865214955324 1045.18303727437 -0.07306 0.443533 -0.893275
-53.2545362102042 115.717216553995 1045.13165901213 -0.051774 0.430948 -0.90089
-53.3488874419731 118.831342997736 1047.07602224047 -0.035097 0.466505 -0.883822
-53.3443998198491 121.68879775434 1047.02454574063 -0.02746 0.479009 -0.87738
-53.5869451012246 125.228830413281 1051.96193177926 -0.010767 0.510111 -0.860041
-53.5824360686897 128.099918064716 1051.91020968544 0.001442 0.512137 -0.858902
-53.7261210857614 131.39691193135 1054.85151040191 0.022344 0.467691 -0.883609
-53.7709929414334 134.42087463705 1055.797266103 0.046162 0.474564 -0.87901
-53.8652456853121 137.597712397014 1057.74049959899 0.009089 0.420443 -0.907274
-53.9594813008622 140.785456472844 1059.68353661979 -0.070264 0.417336 -0.906032
-54.0536997880835 143.984106864538 1061.62637716541 -0.119542 0.43726 -0.891355
-54.1479011469761 147.193663572097 1063.56902123583 -0.166789 0.480711 -0.860871
-54.24208537754 150.414126595521 1065.51146883106 -0.166442 0.515518 -0.840558
-54.3362524797751 153.64549593481 1067.4537199511 -0.130668 0.477777 -0.868709
-54.3810386938035 156.723990219834 1068.39849327624 -0.105569 0.474455 -0.873926
-54.4258163436675 159.80793766279 1069.34316836378 -0.022819 0.456426 -0.889469
-54.4705854293671 162.897338263679 1070.28774521372 0.008521 0.428426 -0.903537
-54.564696864534 166.164153129529 1072.22935778939 0.071036 0.481363 -0.873638
-54.6094445398227 169.267186625249 1073.17368904535 0.104901 0.494481 -0.862835
-54.7528683498815 172.730501808823 1076.11199351517 0.098893 0.65756 -0.746883
-55.2416329391423 177.471162373686 1086.02890952074 -0.021491 0.855268 -0.517741
-56.2729835250908 184.277896169702 1106.91115551986 0.009119 -0.990979 0.133708
-50.7043173829622 -46.8785074622751 1049.0570721474 0.032322 -0.944357 -0.32733
-50.4182408141601 -43.8776377175007 1043.00164382889 0.077073 -0.91438 -0.397452
-50.1322156303441 -40.9094869203211 1036.94680493595 0.047433 -0.898465 -0.436475
-49.8462418315143 -37.9740550707361 1030.89255546857 0.006442 -0.88425 -0.466969
-49.5603194176706 -35.0713421687458 1024.83889542677 0.005374 -0.879408 -0.476039
-49.4151936182071 -32.2417000503242 1021.78723585371 -0.001372 -0.86418 -0.50318
-49.0824503337068 -29.3855212735995 1014.73418607773 0.039302 -0.888073 -0.45802
-48.8435800229575 -26.5835095105197 1009.68256818517 0.035334 -0.891792 -0.451063
-48.5109480725938 -23.7982217869169 1002.63079549793 0.015607 -0.912266 -0.4093
-48.3659678639244 -21.0612833533469 999.580805963983 -0.008656 -0.897613 -0.440699
-48.0334386835329 -18.3414335249335 992.530212127884 -0.003607 -0.889834 -0.45627
-47.7478588362636 -15.6568469402411 986.480481589886 0.034016 -0.893386 -0.448
-47.4623303739805 -13.0049793031435 980.43134047746 0.097419 -0.864509 -0.493087
-47.3174957561052 -10.3607445544252 977.383020982629 0.117056 -0.775377 -0.620556
-47.0789337552728 -7.75504647691354 972.334939643495 0.136712 -0.574885 -0.806732
-47.0279035978338 -5.12135347838047 971.287266131323 0.066267 -0.355864 -0.932185
-47.0706179516805 -2.46003012450554 972.239550938645 0.033837 0.157727 -0.986903
-47.2070511243199 0.245283058508587 975.191499352674 0.078498 0.531056 -0.843693
-47.3434586044662 2.96695571532006 978.143153053918 0.060708 0.620333 -0.781986
-47.4798403921195 5.70498784592888 981.094512042376 0.068351 0.541344 -0.838019
-47.5224947968157 8.40448330533095 982.046109186532 0.068862 0.46792 -0.881084
-47.6119872004973 11.1396065741337 983.997292540054 0.02089 0.51671 -0.855906
-47.6546201947826 13.8527349283669 984.948644090221 -0.009425 0.546865 -0.837168
-47.7909206228745 16.642572059334 987.899069821526 -0.0119 0.597756 -0.80159
-47.8335279246667 19.3720598873645 988.850126658909 0.005967 0.555387 -0.831571
-47.8761266622946 22.1070008733275 989.801085258696 0.050319 0.515772 -0.855247
-47.9187168357581 24.847395017223 990.751945620889 0.078475 0.505614 -0.859183
-47.9612984450573 27.5932423190509 991.702707745486 0.087298 0.526396 -0.845746
-48.0038714901921 30.3445427788112 992.653371632488 0.083551 0.544922 -0.834314
-48.0932482776549 33.153283679702 994.603228778476 0.039786 0.545079 -0.83744
-48.2294159611992 36.0276447586221 997.552131827056 -0.022025 0.509615 -0.860121
-48.3655579522503 38.9183653113395 1000.50074016285 -0.071196 0.490032 -0.868792
-48.4080753303168 41.7051112976607 1001.45076550549 -0.082898 0.499618 -0.86227
-48.5441745005462 44.6230976400404 1004.39888265331 -0.067346 0.544963 -0.835751
-48.6334570822011 47.4918232781882 1006.34765918575 -0.04276 0.534464 -0.844109
-48.6759359215279 50.3031084752054 1007.2972424592 -0.034407 0.477819 -0.877784
-48.7184061966904 53.1198468301552 1008.24672749506 -0.014957 0.423364 -0.905836
-48.8076459575235 56.0158382579652 1010.19501283953 -0.003009 0.464033 -0.885813
-48.8968685900279 58.9227360016401 1012.14310170881 0.000774 0.525626 -0.850715
-49.0328435798741 61.9197931340403 1015.0897944115 -0.029099 0.556397 -0.830407
-49.0752624700504 64.7692504365847 1016.03869002179 -0.073855 0.541252 -0.837611
-49.0709118745562 67.5394546662688 1015.98878532347 -0.0982 0.527744 -0.843708
-49.16007455791 70.4845245154709 1017.93618652958 -0.112896 0.512019 -0.851523
-49.2492201129351 73.4405006805379 1019.8833912605 -0.131113 0.509251 -0.850572
-49.4318446901509 76.5931550968526 1023.82750894547 -0.115504 0.52243 -0.844823
-49.4742036311767 79.4807845049242 1024.77571689259 -0.109315 0.52564 -0.843654
-49.5632935191335 82.4722061965521 1026.72228307914 -0.056549 0.54824 -0.834407
-49.6523662787616 85.4745342040449 1028.6686527905 -0.012574 0.580764 -0.813975
-49.741421910061 88.4877685274026 1030.61482602667 -0.000671 0.624828 -0.780762
-49.8304604130316 91.5119091666251 1032.56080278766 0.005286 0.639146 -0.769067
-49.9662041704401 94.6562015632014 1035.50484307528 -0.036631 0.598651 -0.800172
-50.1019222353556 97.816853433575 1038.44858865012 -0.110803 0.516353 -0.849178
-50.1441869705734 100.764467578904 1039.39571598369 -0.142251 0.475689 -0.868035
-50.186443141627 103.717534882164 1040.34274507968 -0.154014 0.441852 -0.883769
-50.2286907485161 106.676055343358 1041.28967593807 -0.129485 0.447197 -0.885013
-50.3176307635966 109.762907298804 1043.2345229667 -0.097338 0.445094 -0.890178
-50.4065536503484 112.860665570114 1045.17917352015 -0.065441 0.450745 -0.890251
-50.4487670005802 115.840998663037 1046.12571142816 -0.060407 0.442166 -0.894897
-50.5376599127567 118.957842987112 1048.07001815002 -0.065018 0.463809 -0.883546
-50.5798518525776 121.951808974866 1049.01631046404 -0.04817 0.504197 -0.862244
-50.7620739140685 125.360761814006 1052.95581098204 -0.033137 0.513841 -0.857245
-50.804235879314 128.373813854524 1053.90175946447 -0.020421 0.518222 -0.855002
-50.8930602781757 131.534283442058 1055.84528028558 0.029032 0.485503 -0.873753
-50.9352008330104 134.560968377407 1056.79098317402 0.013331 0.46434 -0.885557
-51.0706576909129 137.88794156472 1059.73173250221 -0.006036 0.395232 -0.918562
-51.1594307047884 141.081130099848 1061.67466389774 -0.070113 0.379959 -0.922342
-51.1548788514317 143.979483540945 1061.62245061594 -0.123768 0.367394 -0.921793
-51.1969765854446 147.033434265956 1062.56766231642 -0.18447 0.423355 -0.886984
-51.2390657552932 150.0928381489 1063.5127757793 -0.217501 0.495081 -0.841183
-51.3744284073877 153.47979607347 1066.45244449394 -0.211464 0.506009 -0.836205
-51.4631286258662 156.719336451025 1068.39454086991 -0.16097 0.4992 -0.851404
-51.5051792569751 159.803279544664 1069.33921226361 -0.077491 0.486352 -0.87032
-51.5472213239197 162.892675796236 1070.28378541972 0.008023 0.46384 -0.885883
-51.6358787215763 166.159481963453 1072.22539060772 0.047038 0.496312 -0.866869
-51.67789937811 169.262511109856 1073.16971816983 0.061844 0.501437 -0.862981
-51.8597574626157 172.903223161125 1077.10504359003 0.008763 0.701234 -0.712877
-52.2280254849836 177.286293822566 1085.02790771224 -0.04443 0.859903 -0.50852
-53.2487197257053 184.273072777543 1106.90705905386 -0.094693 -0.966322 -0.23928
-47.8933382145123 -46.9101490529407 1050.05391694721 0.021762 -0.931106 -0.3641
-47.5794142901202 -43.8821653561273 1042.99779854386 0.078466 -0.903272 -0.421833
-47.3539521227908 -40.9356231612544 1037.94359582422 0.011925 -0.904852 -0.425559
-47.0843361544093 -37.9974386368034 1031.88931940107 -0.016799 -0.889896 -0.455855
-46.8589639108057 -35.1081546002212 1026.83614817618 -0.020952 -0.868463 -0.495311
-46.7220106034431 -32.2730462759172 1023.78440144703 -0.014219 -0.867873 -0.496583
-46.3641641104365 -29.4006555137018 1015.73086175524 -0.0121 -0.874095 -0.485604
-46.1389246113805 -26.5958954250726 1010.67921321307 0.020686 -0.885806 -0.463595
-45.7812022987571 -23.8025754528777 1002.62709796641 0.014391 -0.915594 -0.401846
-45.6002322169721 -21.0630753259147 998.576849335277 -0.014654 -0.898462 -0.438806
-45.3309630972471 -18.3457436977279 992.526551534735 0.002622 -0.896142 -0.443759
-45.1059077277248 -15.6582265046463 987.477015100863 0.059556 -0.879839 -0.471526
-44.8808951790243 -12.997975101227 982.427969854966 0.104889 -0.865145 -0.490431
-44.7000792521977 -10.3566318170481 978.37948950055 0.112637 -0.815004 -0.568403
-44.4751480630586 -7.74818541398699 973.331377511807 0.072607 -0.595667 -0.799943
-44.3826954054046 -5.12557231552533 971.283683108766 0.032337 -0.414762 -0.909355
-44.4226827404963 -2.46425331096705 972.23596422225 -0.061834 0.245128 -0.967517
-44.5950715295939 0.260310810383871 976.18777878308 -0.004394 0.522904 -0.85238
-44.7232936713928 2.98469699821163 979.139372284013 -0.01313 0.633336 -0.773766
-44.8073620121395 5.70072551561756 981.090892081442 0.025374 0.533063 -0.845695
-44.8472893980806 8.40021662570299 982.04248553176 0.041286 0.468309 -0.8826
-44.8872082198574 11.1051608937209 982.993980744483 0.032053 0.453068 -0.890899
-44.9712337397824 13.848455200789 984.945009353936 0.011743 0.520197 -0.853965
-45.0993531116089 16.6382792838062 987.895424003728 0.013369 0.594147 -0.804245
-45.1392333946461 19.3677627625201 988.846477147273 0.006229 0.570349 -0.821379
-45.1791051135189 22.1026993991664 989.797432053223 0.039456 0.555015 -0.830904
-45.2630664022111 24.886892390728 991.747723880713 0.077163 0.544809 -0.835002
-45.302916710673 27.6354619222054 992.698433192675 0.097293 0.52127 -0.847828
-45.3868480247901 30.4387409665306 994.648381188583 0.076632 0.513858 -0.854445
-45.4266769228411 33.2009433928392 995.598844906557 0.028216 0.504795 -0.862778
-45.5546592680379 36.0780180027755 998.547687754827 -0.042415 0.471599 -0.880792
-45.6385391971688 38.9140159946953 1000.49704632516 -0.068279 0.487874 -0.87024
-45.7224019979709 41.76092030248 1002.44620842031 -0.05208 0.521484 -0.85167
-45.8062476704443 44.6187309261296 1004.39517404027 -0.034894 0.561464 -0.826765
-45.890076214589 47.4874478656441 1006.34394318503 -0.01192 0.556786 -0.830571
-45.9298280351608 50.2987287133447 1007.29352276465 0.017783 0.488105 -0.872604
-45.9255159784062 53.0443937323328 1007.24406013551 0.043909 0.461157 -0.886231
-46.0533570148911 56.0114454481546 1010.19128206347 0.051345 0.463989 -0.884352
-46.181172358883 58.9948566377737 1013.13820927863 0.041783 0.520583 -0.852788
-46.2649195434662 61.9153785776464 1015.08604516624 0.003785 0.529023 -0.848599
-46.3046114148875 64.7648315308742 1016.0349370827 -0.08592 0.511483 -0.854987
-46.3002608193933 67.5350357605583 1015.98503238438 -0.13342 0.485501 -0.863995
-46.383969465237 70.4800969111271 1017.93242620282 -0.16918 0.467614 -0.867592
-46.3796103055784 73.2557542987436 1017.8824232669 -0.199136 0.490458 -0.848408
-46.5513353719382 76.4029381598594 1021.82662441411 -0.196934 0.503891 -0.841018
-46.6349926327957 79.3807182580228 1023.77342880698 -0.157746 0.545892 -0.822872
-46.7626452576647 82.4677394483585 1026.71848950784 -0.077602 0.590941 -0.802973
-46.8022557695246 85.3689974019445 1027.66644816714 -0.044086 0.598945 -0.799575
-46.9298655735718 88.4832843819424 1030.61101768002 -0.032956 0.622505 -0.781922
-47.0134500390323 91.5074163225317 1032.55698705332 -0.052378 0.615308 -0.786544
-47.1410127401756 94.651695671158 1035.50101625943 -0.094684 0.544452 -0.833431
-47.2245586668964 97.7003668224433 1037.44654356356 -0.182334 0.479371 -0.858462
-47.2641006654414 100.645250039489 1038.3937163221 -0.216985 0.435292 -0.87375
-47.347616617587 103.713007243538 1040.33889979464 -0.224384 0.434133 -0.872456
-47.3431589700383 106.551375947378 1040.28776712639 -0.183864 0.476197 -0.859901
-47.4706231832915 109.758366612227 1043.23066660016 -0.101485 0.489197 -0.866249
-47.4661526894962 112.604915052965 1043.17938657551 -0.079783 0.47318 -0.877346
-47.5496129745735 115.708117783575 1045.12393150369 -0.06015 0.435838 -0.898013
-47.6770172386761 118.953280553952 1048.06614331429 -0.062596 0.483453 -0.87313
-47.7604389850138 122.081022495258 1050.01024617329 -0.061239 0.498853 -0.86452
-47.8438436030227 125.219670752428 1051.95415255709 -0.064959 0.520136 -0.85161
-47.8832828315954 128.229991864664 1052.90014646449 -0.055927 0.543757 -0.837377
-47.9227134960037 131.245766134831 1053.84604213429 -0.040882 0.514915 -0.856266
-48.0500149901341 134.556366800397 1056.78707509375 -0.028083 0.467303 -0.883651
-48.0894199620493 137.588500544362 1057.73267605077 -0.044254 0.387445 -0.92083
-48.2166786353578 140.92636699959 1060.67321782225 -0.05557 0.321992 -0.94511
-48.2121310640834 143.821993861721 1060.62105365925 -0.098764 0.320311 -0.94215
-48.2954286300378 147.028806593047 1062.56373207312 -0.147277 0.382588 -0.912105
-48.3347907811313 150.088206126674 1063.50884184216 -0.191273 0.45063 -0.871979
-48.4180583725105 153.314104910764 1065.45117642444 -0.202938 0.512911 -0.834109
-48.501308835561 156.550910010719 1067.39331453154 -0.194605 0.537457 -0.820529
-48.5845421702827 159.798621426538 1069.33525616345 -0.143962 0.536804 -0.831334
-48.6677583766758 163.057239158223 1071.27700132016 -0.061967 0.509403 -0.858294
-48.7509574547401 166.326763205772 1073.21855000169 -0.009281 0.50226 -0.864667
-48.7902468104365 169.432514581825 1074.16282475117 0.001949 0.488259 -0.872696
-48.9173042258826 172.898530248466 1077.10105793917 -0.06918 0.645342 -0.760754
-49.1759880384602 176.921301824786 1083.02993407216 -0.141101 0.848423 -0.510165
-50.1805761785272 184.085390661125 1105.9060324874 -0.013555 -0.991488 0.129491
-45.0354225591868 -46.9147071367838 1050.05004580532 -0.012699 -0.926926 -0.375029
-44.699109598797 -43.8623273682644 1041.99329382359 0.036397 -0.911796 -0.409027
-44.4458129221242 -40.8968509582513 1035.93854837549 0.014677 -0.906551 -0.421842
-44.1925676304375 -37.9640934958328 1029.88439235297 -0.007525 -0.884035 -0.46736
-43.9808390447737 -35.0802408705998 1024.83133783486 -0.062821 -0.882096 -0.466862
-43.8520753578407 -32.2505726562783 1021.77970042482 -0.072675 -0.865614 -0.49541
-43.5575103359114 -29.3943329891206 1014.72670236257 -0.039314 -0.84785 -0.528776
-43.3873626875032 -26.6002838855666 1010.67548613084 -0.006708 -0.878607 -0.477499
-43.0514565249204 -23.8069291188386 1002.62340043488 0.014063 -0.918566 -0.395018
-42.8399506075299 -21.0648585998493 997.572900094245 0.013052 -0.898175 -0.439444
-42.5870478824176 -18.3502274547288 991.522673575527 0.047277 -0.88204 -0.468796
-42.4170672352143 -15.6625149308575 987.473372976903 0.0701 -0.865059 -0.496748
-42.2056897802892 -13.0022417808549 982.424346200195 0.076825 -0.861791 -0.501411
-42.07720871078 -10.3525277783042 979.375950630795 0.06314 -0.836013 -0.545065
-41.8659083333342 -7.74133304969374 974.327807992443 -0.004711 -0.630501 -0.776174
-41.7374872129755 -5.1297911526702 971.280100086209 -0.03518 -0.42349 -0.905217
-41.7747475293121 -2.46847649742856 972.232377505855 -0.120755 0.194733 -0.973395
-41.894818589421 0.236810589685696 975.184303756858 -0.116021 0.531453 -0.839105
-42.056269328923 2.98044336653361 979.135759710754 -0.057972 0.648073 -0.759369
-42.1348836321595 5.69646318530625 981.087272120508 -0.026797 0.551047 -0.834044
-42.1306871916238 8.36851057220627 981.039135698905 -0.01946 0.488632 -0.872273
-42.1678832767276 11.0707239119413 981.990676336587 0.012516 0.462843 -0.886352
-42.2050707976671 13.7783904096087 982.942118736675 0.04315 0.51529 -0.855929
-42.3250176773929 16.5627482867435 985.892620542549 0.055163 0.577062 -0.814835
-42.4449388646255 19.3634656376756 988.842827635638 0.022753 0.564324 -0.82524
-42.5234589620541 22.1394701937052 990.793259431845 0.022522 0.58215 -0.812769
-42.6433330463828 24.9701799132658 993.742926218161 0.036343 0.544015 -0.838288
-42.6804477719252 27.7241982533591 994.69353359869 0.047102 0.546193 -0.836334
-42.7589164843677 30.5329217569833 996.643375969327 0.050724 0.490822 -0.869782
-42.7546515305171 33.2485944073429 996.594453646963 0.016772 0.464874 -0.885218
-42.8744485373665 36.1283825482956 999.543236294923 -0.017476 0.435522 -0.900008
-42.8701707372693 38.8522349355539 999.494166616166 -0.036921 0.481152 -0.875859
-42.9072383599078 41.6362456442756 1000.44423368992 -0.041065 0.515536 -0.855884
-42.9856385590354 44.4885944113595 1002.3932901598 -0.052449 0.546114 -0.836067
-43.0640216298343 47.3518494943082 1004.34215015448 -0.03239 0.576107 -0.816733
-43.1837201487936 50.294348951484 1007.2898030701 0.019608 0.529797 -0.847898
-43.2620646808529 53.1821432451288 1009.23822099561 0.079936 0.489537 -0.868311
-43.3403920845835 56.0808438546385 1011.18644244593 0.080047 0.485339 -0.870654
-43.4600220902279 59.0669685752739 1014.13330946078 0.018998 0.467845 -0.883607
-43.455680058898 61.8317196470256 1014.08350300006 -0.028469 0.466729 -0.883942
-43.5339603597246 64.7604126251637 1016.0311841436 -0.104365 0.437475 -0.893154
-43.5296097642304 67.5306168548478 1015.98127944529 -0.146795 0.438236 -0.886792
-43.56656177065 70.3882451956576 1016.93002031151 -0.187886 0.440437 -0.877903
-43.5622068930736 73.1611760043079 1016.8800664944 -0.20649 0.478273 -0.85359
-43.6817341287458 76.2127386201327 1019.82575465811 -0.208004 0.511401 -0.833789
-43.8012356719248 79.2806607097548 1022.77114810904 -0.167455 0.569722 -0.804597
-43.8794260490256 82.2666118461837 1024.71779775784 -0.13242 0.604502 -0.785521
-43.9575992977977 85.2634692984774 1026.66425093144 -0.109028 0.622954 -0.774624
-44.1183092370827 88.4788002364822 1030.60720933336 -0.091347 0.626283 -0.774226
-44.2377122923716 91.6094336423275 1033.55147305195 -0.11304 0.57677 -0.809048
-44.3570896551675 94.7564265219701 1036.49544205775 -0.171799 0.454341 -0.874105
-44.3526491359475 97.5838889099449 1036.44450586468 -0.190824 0.442638 -0.876161
-44.3482086167275 100.41135129792 1036.39356967162 -0.236265 0.398795 -0.886082
-44.4262790955273 103.473646645403 1038.33884399408 -0.225454 0.443584 -0.867412
-44.4630812290706 106.426705250031 1039.28586570239 -0.187021 0.529894 -0.827185
-44.5823686681407 109.630956287964 1042.22880321344 -0.10496 0.53162 -0.840454
-44.5779024564277 112.474778149736 1042.17757230759 -0.078943 0.507542 -0.858003
-44.6971513567581 115.703568398365 1045.12006774946 -0.036808 0.454761 -0.889852
-44.8163745645955 118.948718120792 1048.06226847855 -0.028399 0.450471 -0.892339
-44.9355720799398 122.210227317016 1051.00417449485 -0.070185 0.495097 -0.865998
-44.9310673294872 125.078588389484 1050.95250151983 -0.093849 0.514124 -0.852566
-45.0502263060919 128.364636796405 1053.89396546695 -0.109008 0.541589 -0.833546
-45.1281426299332 131.525088986672 1055.8374715127 -0.116845 0.516529 -0.84826
-45.288467181822 134.985812031637 1059.77600922284 -0.068181 0.434522 -0.898077
-45.2427154965238 137.731303466418 1058.72632922765 -0.101475 0.383791 -0.917827
-45.3617888314849 141.071883452663 1061.66681079882 -0.064543 0.301046 -0.951423
-45.3160371461867 143.817374887444 1060.61713080362 -0.094877 0.304488 -0.947779
-45.3114895749122 146.713001749575 1060.56496664062 -0.083518 0.335303 -0.938401
-45.348133271415 149.766943775953 1061.51017095342 -0.110379 0.41891 -0.901294
-45.4259553894484 152.987380703477 1063.45259638563 -0.170133 0.501685 -0.848155
-45.5861257863787 156.546260591226 1067.38936581905 -0.193575 0.546965 -0.814468
-45.6227266620597 159.627468407266 1068.33407894388 -0.183881 0.562062 -0.806396
-45.7416672524732 163.052572341464 1071.27303783232 -0.118322 0.542734 -0.831529
-45.7782424356611 166.150139631301 1072.21745624436 -0.101369 0.520893 -0.847582
-45.8559746299687 169.427834717116 1074.15885018182 -0.075872 0.522008 -0.849559
-45.9336896959476 172.716436118796 1076.10004764409 -0.110221 0.601816 -0.790992
-46.1760156780769 176.73645502025 1082.02895073285 -0.21107 0.790086 -0.575511
-47.1178866688592 183.897717243339 1104.90501330862 -0.458155 0.336242 -0.822822
-42.2550177650819 -46.9734583301716 1052.04758438381 0.001448 -0.93407 -0.357087
-41.9405123905684 -43.9155906091867 1043.99076371519 0.006686 -0.910656 -0.41311
-41.6648223958158 -40.9229915485013 1036.93533556992 0.011436 -0.903842 -0.427714
-41.4666775189412 -38.0063982290904 1031.88171009543 0.013949 -0.894492 -0.446865
-41.2298371606068 -35.1008804604343 1025.82806742391 -0.042864 -0.887254 -0.459284
-41.0317822074581 -32.2415452993142 1020.77547344417 -0.079739 -0.869219 -0.487955
-40.7563105988965 -29.3880017659062 1013.72255035758 -0.046183 -0.836286 -0.546345
-40.6358007636258 -26.6046723460606 1010.67175904862 -0.017162 -0.868512 -0.495371
-40.3604319250366 -23.816566707842 1003.62001481317 0.013135 -0.916565 -0.39967
-40.1238399274687 -21.0691905192269 997.569221031908 0.023289 -0.895896 -0.443653
-39.8872993148869 -18.3545332782065 991.519016676216 0.053519 -0.880544 -0.470934
-39.7669350704102 -15.6639075432126 988.469895406366 0.052881 -0.860877 -0.506058
-39.5691884271783 -13.0008860676606 983.420837980049 0.036118 -0.863998 -0.502198
-39.3714846047682 -10.3651303817708 978.372271741707 -0.002712 -0.835099 -0.550093
-39.2125190846398 -7.74556493478854 974.324213888372 -0.048783 -0.631832 -0.773569
-39.0922790205464 -5.13400998981507 971.276517063651 -0.042899 -0.352616 -0.934784
-39.1268123181278 -2.47269968389008 972.22879078946 -0.067222 0.090618 -0.993614
-39.2387023219715 0.232574355274249 975.18070595895 -0.134941 0.514162 -0.847012
-39.3505666333221 2.95420786823592 978.132326415654 -0.09234 0.657006 -0.748209
-39.4237311811307 5.66749240940905 980.08388055653 -0.051038 0.591567 -0.804639
-39.4968786006106 8.39168326644708 982.035238222216 -0.025522 0.549185 -0.835311
-39.5700088917617 11.12678043935 983.986399412712 0.027366 0.526645 -0.849644
-39.6044608297818 13.8398957456333 984.937739881367 0.071891 0.536855 -0.840606
-39.6775611463577 16.5940789712998 986.888557240279 0.086418 0.559429 -0.824361
-39.7506443346049 19.3591685128312 988.839178124002 0.039623 0.534107 -0.844488
-39.8237103945233 22.1351643702275 990.789602532534 0.00673 0.561 -0.827788
-39.9354034225868 24.9658610418381 993.739258237337 -0.011889 0.54952 -0.835396
-40.0084309437656 27.7663961099304 995.689240576691 0.006096 0.516597 -0.856207
-40.0814413366158 30.5778374938876 997.639026440855 0.006675 0.471729 -0.881718
-40.0385408504558 33.2442624879653 996.590774584626 0.002576 0.459139 -0.888361
-40.111529832895 36.0693367667537 998.540314854802 -0.012052 0.43515 -0.900278
-40.1458790009428 38.8478899682263 999.490476472315 -0.045913 0.451843 -0.890915
-40.1802196048262 41.6318963276314 1000.44053985223 -0.057026 0.508868 -0.858954
-40.2531657664437 44.484236396082 1002.38958893443 -0.083202 0.560573 -0.823915
-40.3647046395486 47.4130899104767 1005.33747636253 -0.071899 0.589611 -0.804481
-40.4376122624264 50.2899691896233 1007.28608337555 -0.028087 0.561812 -0.826788
-40.5105027569756 53.1777547846348 1009.23449391338 0.025944 0.514195 -0.857281
-40.583376123196 56.0764466955112 1011.18270797602 0.048788 0.460125 -0.886513
-40.6562323610876 58.9860449222525 1013.13072556347 0.016338 0.411786 -0.911134
-40.65189461184 61.7480694150379 1013.08096822155 -0.046497 0.417513 -0.90748
-40.6861410099154 64.5920605117 1014.02995098792 -0.082201 0.41554 -0.905853
-40.6817989785855 67.3568115834516 1013.9801445272 -0.107833 0.426326 -0.898119
-40.7546081135732 70.2964021788214 1015.92762180788 -0.137619 0.437353 -0.888698
-40.7888288191556 73.1567527492808 1016.87630986147 -0.156036 0.465434 -0.87122
-40.8616079795681 76.1154293974141 1018.82344331057 -0.163367 0.507112 -0.846256
-40.9343700116518 79.0850123614124 1020.77038028447 -0.149972 0.587537 -0.795179
-41.0456733702369 82.1638277189494 1023.7155661787 -0.136086 0.604463 -0.784924
-41.1955052090768 85.360055206924 1027.65885363685 -0.132176 0.62525 -0.769151
-41.3453027912593 88.5780953266285 1031.60174814462 -0.135622 0.612022 -0.779125
-41.4179748996173 91.6049364489174 1033.54765362378 -0.140591 0.549879 -0.823327
-41.4520885531452 94.5334514935324 1034.49511370743 -0.157346 0.490263 -0.857254
-41.4861936425087 97.4674196960798 1035.44247555348 -0.186434 0.431408 -0.882683
-41.4817574053709 100.292155505088 1035.39158847921 -0.204773 0.390499 -0.89754
-41.5543781287427 103.351715574972 1037.3369045328 -0.196755 0.47734 -0.856408
-41.6269817237858 106.422181960721 1039.2820241112 -0.145906 0.561358 -0.81461
-41.7380881065906 109.626419950704 1042.22495054073 -0.089006 0.564123 -0.820879
-41.7721375288858 112.595833679812 1043.17167384242 -0.059242 0.528558 -0.846827
-41.8446897389428 115.699019013156 1045.11620399524 -0.057008 0.446008 -0.893211
-41.8787177508271 118.682065637095 1046.06268170294 -0.039952 0.437958 -0.898107
-41.9512399863088 121.804337023202 1048.00686802418 -0.061561 0.442897 -0.894456
-41.9852465877822 124.801016541973 1048.95310013789 -0.094787 0.460189 -0.882746
-42.096233072286 128.08159874301 1051.8946512411 -0.156595 0.527107 -0.835246
-42.2071938642968 131.378540417845 1054.83590763152 -0.166297 0.516269 -0.840126
-42.3181289638144 134.691841566478 1057.77686930915 -0.194698 0.464963 -0.863656
-42.3135942387865 137.579288691709 1057.72485250254 -0.186835 0.399644 -0.897428
-42.3475366090272 140.616866894973 1058.67034783429 -0.167294 0.338174 -0.926095
-42.3814704151036 143.65989825617 1059.61574492844 -0.113251 0.313622 -0.94277
-42.4153956570156 146.708382775299 1060.561043785 -0.061854 0.340745 -0.938119
-42.4493123347632 149.76232045236 1061.50624440396 -0.078318 0.383624 -0.920162
-42.4832204483465 152.821711287354 1062.45134678532 -0.127351 0.460952 -0.87824
-42.594031367481 156.214083226007 1065.39088401783 -0.195646 0.530806 -0.824601
-42.7048165941224 159.622814638457 1068.33012653755 -0.199823 0.580582 -0.789301
-42.8155761282707 163.047905524705 1071.26907434448 -0.178264 0.562857 -0.807102
-42.8878671313147 166.317412174987 1073.21060825066 -0.152149 0.506821 -0.848518
-42.8832638929719 169.248484563679 1073.15780554329 -0.161562 0.524629 -0.83586
-42.9555292035228 172.534350687759 1075.09904473668 -0.151756 0.546745 -0.823432
-43.1046373704744 176.191370021026 1079.03403111804 -0.201973 0.662062 -0.721721
-43.9837997761363 183.344352472933 1101.91015609195 -0.542791 0.326492 -0.773809
-39.3195912485358 -46.92382330447 1050.04230352152 0.005978 -0.925342 -0.379087
-39.0269105882273 -43.8713739468844 1041.98561064119 -0.012512 -0.906445 -0.422139
-38.8063381366155 -40.9058453450715 1035.93090951915 0.010224 -0.902099 -0.431408
-38.6578482012072 -38.0108780252339 1031.87790544262 0.038316 -0.890913 -0.452556
-38.4013586718768 -35.0891395724538 1024.82378024295 -0.038397 -0.898489 -0.437314
-38.2169430945856 -32.2325092437167 1019.7712538512 -0.0668 -0.878257 -0.473501
-37.996567618754 -29.3924032743501 1013.71881219384 -0.041513 -0.8191 -0.572146
-37.8842388397485 -26.6090608065546 1010.66803196639 -0.034101 -0.856319 -0.51532
-37.6279591324449 -23.8209247231195 1003.61631358781 0.001252 -0.905033 -0.42534
-37.4077292474074 -21.0735224386045 997.565541969571 0.02073 -0.899694 -0.436028
-37.2235363383895 -18.3586742161111 992.515569755288 0.028905 -0.880488 -0.473187
-37.0753675591447 -15.6682003187404 988.466249588568 0.006879 -0.870675 -0.49181
-36.8912560096882 -13.0051570966052 983.417210631439 -0.025845 -0.874137 -0.484991
-36.7071872810535 -10.3693796641322 978.368662862286 -0.030893 -0.843484 -0.536266
-36.5231613732407 -7.76086802132146 973.320606281109 -0.027633 -0.617378 -0.786181
-36.4111066474947 -5.15202660736429 970.272969656698 0.005341 -0.357117 -0.934044
-36.4429172084032 -2.49344722972216 971.225288807466 -0.036311 0.100885 -0.994235
-36.5466304380638 0.209087182526005 974.177242014241 -0.060458 0.487689 -0.870922
-36.6143666408553 2.9060035512685 976.129083480227 -0.091754 0.680372 -0.727101
-36.718032767612 5.63853033214514 979.080496380228 -0.074251 0.634035 -0.769732
-36.8216732018755 8.38741658681913 982.031614567444 -0.034069 0.578723 -0.814813
-36.8893494555165 11.1225050610888 983.982768370265 0.05132 0.557209 -0.828785
-36.9210743747815 13.8356160180554 984.934105145082 0.073212 0.556786 -0.827423
-36.9527907298821 16.5541801329544 985.885343682304 0.081745 0.543621 -0.835341
-37.0563498045843 19.3548713879867 988.835528612366 0.014882 0.519206 -0.854519
-37.1239618269926 22.1308585467497 990.785945633223 -0.015462 0.535492 -0.844399
-37.1915567210722 24.9177520213776 992.73616617889 -0.049569 0.544029 -0.837601
-37.2950472824594 27.7620685398694 995.685565208191 -0.049951 0.516655 -0.854735
-37.3266951242452 30.5242579182281 996.636017844652 -0.035707 0.507766 -0.860755
-37.3224301703945 33.2399305685877 996.587095522288 -0.021499 0.458954 -0.8882
-37.3540651659338 36.010299683845 997.537400802357 -0.022994 0.418492 -0.90793
-37.4215872646163 38.8435450008988 999.486786328465 -0.046561 0.426295 -0.903385
-37.4173094645191 41.5673973881571 999.437716649708 -0.073004 0.482667 -0.872756
