ply
format ascii 1.0
element vertex 933
property float x
property float y
property float z
property uchar red
property uchar green
property uchar blue
element face 0
property list uchar int vertex_indices
end_header
-26.6985218324261 -84.947153701232 715 244 236 219
-28.6884121256063 -87.0185106124105 716 255 251 235
-26.773203012377 -87.1400448451094 717 252 246 229
-24.8525398496974 -87.2615790778082 718 244 236 219
-24.8179262844471 -85.1847681171795 717 245 235 218
-20.8198942811875 -84.8283464932583 714 249 241 224
-18.8199336452834 -84.5907320773107 712 254 250 234
-16.7834701755805 -82.1847697400122 708 253 249 233
-34.8355533684764 -89.7166278601594 722 238 234 217
-32.9121631810717 -89.8408891175835 723 240 234 217
-32.9576848452225 -91.9395162760134 724 240 236 220
-30.940524304791 -89.8408891175835 723 246 240 223
-28.9288178138097 -89.7166278601594 722 255 251 235
-22.8307630159921 -87.0185106124105 716 243 233 216
-26.9225653722787 -91.5585514295658 721 252 248 231
-28.9288178138097 -91.685539711715 722 246 242 225
-26.9599059622541 -89.7166278601594 722 253 250 234
-40.9680079753489 -90.2136728898556 726 134 133 127
-35.0285481239804 -92.1934928403118 726 244 240 229
-37.0593437880377 -92.3204811224609 727 206 202 192
-30.9833189442167 -91.9395162760134 724 238 234 218
-20.8490537969875 -86.8969763797116 715 243 235 218
-18.8727986274331 -86.7754421470127 714 245 239 223
-16.901997507329 -84.7095392852845 713 254 251 237
-12.903751747874 -80.1406830760852 707 251 238 223
-14.8946935534261 -82.4169301065094 710 247 241 225
-10.9602208750214 -80.0273299175618 706 251 245 229
-12.9402545816728 -82.3008499232608 709 239 233 216
-16.9257029736787 -86.7754421470127 714 249 245 229
-14.9576288782997 -84.7095392852845 713 253 250 236
-10.9912696593699 -82.1847697400122 708 239 233 216
-1.29037041863924 -66.244859947873 683 245 234 213
-1.29225968718776 -68.2071358700455 684 242 235 215
-19.7701517123881 -1.04760816928991 678 161 153 126
-17.9476614398138 -6.60410267920525 679 166 159 129
-19.7701517123881 0.801314594359233 678 161 153 128
-17.9740939308886 -4.75945208507372 680 166 159 129
-21.6509610165624 2.65414626266621 679 180 170 145
-15.9300733869917 -35.8569889912023 672 150 143 113
-15.9774843196911 -34.1256915555942 674 147 140 110
-16.0011897860407 -32.3355814559656 675 148 142 115
-31.4554699282442 8.3541753737883 691 179 170 147
-33.3880927021962 10.2533664624228 692 169 159 134
-25.6903259030898 4.56551941548728 688 164 153 130
-29.5283012037424 8.34208539495504 690 183 174 151
-23.7102921964383 4.54561162733836 685 169 159 134
-25.7276664930652 6.45107538049601 689 160 151 128
-23.7449057616886 6.42298651817165 686 171 161 136
-27.6065865286909 8.32999541612177 689 169 160 137
-18.0269589130383 -2.9136196110095 682 169 162 132
-21.7466206381378 4.52570383918943 682 185 175 150
-19.7409921965881 2.64632845335055 677 162 154 129
-18.0269589130383 0.806042114089966 682 160 152 125
-18.0533914041131 -1.05533389325223 683 163 155 128
-19.7993112281881 4.5057960510405 679 164 156 131
0.572187468635637 -66.244859947873 683 241 230 209
0.569674200105759 -64.0995101042558 680 248 239 218
0.568836443929133 -62.153596330434 679 255 249 229
-1.30170602993036 -70.5846460801599 689 253 249 232
0.573862980988889 -68.3068539049433 685 240 231 210
-1.30170602993036 -72.4635661157857 689 251 248 232
-17.9740939308886 -10.322582524372 680 169 160 130
-16.1434225841389 -14.0519704684394 681 155 148 118
-14.2443618630652 -28.8239001396968 679 150 145 115
-14.2653403046898 -25.1575970291675 680 149 144 114
-35.5300723800032 12.2281877136418 697 171 158 131
-37.591916828409 14.1897371060948 700 175 159 133
-39.5572638990628 14.2100081591035 701 169 156 133
-33.4845900799482 12.1755556287911 694 170 157 133
-21.7785071786629 6.39489765584728 683 183 173 148
-25.7276664930652 8.32999541612177 689 160 151 128
-23.7449057616886 8.29372547962197 686 172 164 139
-16.1671280504886 -17.7922665114073 682 151 144 114
-14.3072971879388 -23.3717590990565 682 148 143 113
-16.1671280504886 -12.2127739237582 682 153 146 116
-15.906367920642 -37.6334639672051 671 146 137 107
-14.2233834214407 -34.3282179149746 678 147 142 112
-14.2443618630652 -30.6755499280711 679 148 145 117
-12.4292149084897 -27.0516973332115 681 150 145 115
-12.4474663253891 -28.9512516867057 682 148 145 115
-14.2443618630652 -32.5271997164454 679 146 143 115
-29.5710958431681 10.2385494588644 691 182 173 150
-31.4554699282442 10.2385494588644 691 181 172 149
-27.6466541433915 10.2237324553059 690 166 157 134
-25.7276664930652 10.2089154517475 689 161 152 129
-18.0269589130383 2.6658729766397 682 161 153 128
-19.8576302597881 6.37617174763104 681 170 164 139
-33.5810874577002 14.10865289406 696 168 155 131
-31.5465132565459 12.1580116005075 693 183 174 151
-29.6138904825938 12.140467572224 692 183 174 151
-27.6867217580921 12.1229235439404 691 165 158 135
-31.6375565848476 14.0883818410513 695 178 169 146
-29.6566851220195 14.0478397350339 693 183 174 151
-31.7741215773002 16.0526582582295 698 177 168 145
-35.6320238072055 14.1694660530861 699 171 158 131
-41.7646921702733 16.2366428801003 706 168 157 136
-39.7265531882171 16.1906467246326 704 167 154 131
-37.6993223050616 16.1446505691649 702 172 156 130
-35.7339752344078 16.121652491431 701 169 156 129
-33.7740822132043 16.0986544136972 700 169 156 132
-51.9734247412581 18.3677231557255 714 174 165 144
-53.9960393311399 18.3934482581845 715 182 177 156
-49.9562642008265 18.3419980532665 713 172 158 138
-47.9445577098452 18.3162729508075 712 172 157 138
-43.8756230637317 18.2390976434305 709 178 175 155
-45.9383052683142 18.2905478483485 711 180 168 149
-56.0241079704721 18.4191733606435 716 182 177 156
-39.7265531882171 18.1104721311355 704 168 155 132
-41.8238489580499 18.1876474385125 707 171 157 137
-43.9375068762335 20.2010103007434 710 183 173 154
-48.0792334337492 20.3148188094799 714 165 158 137
-46.002916105541 20.2579145551116 712 178 171 150
-43.81373925123 22.0748395517786 708 181 174 154
-41.8830057458265 20.1441060463751 708 164 155 132
-50.0963939741808 20.3432709366641 715 165 158 135
-37.7530250433879 18.0847470286765 703 172 157 128
-33.7258335243283 17.9818466188405 699 170 157 133
-35.7339752344078 18.0332968237585 701 171 158 129
-58.0576306592546 18.4448984631025 717 167 161 136
-52.1190085640627 20.3717230638482 716 170 165 144
-54.2225961395223 20.4286273182165 718 183 179 155
-60.1803074077902 18.4963486680205 719 168 160 135
-56.2588458530299 20.4570794454007 719 182 178 154
-70.8599775000487 16.7426005902451 728 165 159 142
-62.3138922552265 18.5477988729385 721 168 161 138
-64.3692311418101 18.5735239753975 722 185 178 155
-66.430024077844 18.5992490778565 723 183 179 155
-68.6854872817352 18.6764243852335 726 166 161 140
-70.8599775000487 18.7278745901515 728 162 158 141
-73.2455001345703 16.8345929011805 732 181 177 166
-66.7056673312791 20.6562443356897 726 184 179 158
-62.4867463252826 20.5708879541372 723 169 162 139
-64.5475392613165 20.5993400813214 724 180 176 152
-60.347707428396 20.513983699769 721 167 161 136
-68.9693116093457 20.7416007172421 729 161 158 138
-71.054647767906 20.7700528444263 730 171 169 151
-73.1454379759165 18.8050498975285 731 176 172 161
-58.3815226015656 20.513983699769 721 169 163 138
-52.1190085640627 22.3242727670529 716 172 167 146
-50.0963939741808 22.2930936151436 715 166 159 138
-48.0792334337492 22.2619144632344 714 167 160 139
-46.002916105541 22.1995561594158 712 175 168 148
-39.8958424773715 20.1156539191909 707 168 155 131
-43.9993906887352 24.1072915870854 711 181 174 153
-56.3370918138826 22.4489893746901 720 179 175 151
-58.3815226015656 22.4801685265994 721 168 161 138
-54.2981150756498 22.4178102227808 719 184 179 158
-60.4314074386989 22.5113476785087 722 167 160 137
-64.5475392613165 22.5737059823273 724 181 176 155
-62.5731733603106 22.5737059823273 724 173 166 143
-66.7056673312791 22.6360642861459 726 184 179 158
-68.8747035001422 22.6984225899644 728 169 166 146
-37.9141332583668 20.0872017920068 706 174 159 130
-41.8238489580499 22.0436603998693 707 168 159 136
-39.8958424773715 22.0436603998693 707 168 155 131
-71.054647767906 22.760780893783 730 164 162 144
-75.4472606001352 12.8773167601335 734 212 211 205
-75.652838966893 14.9194950144083 736 185 184 178
-73.2455001345703 20.8269570987946 732 189 187 176
-15.8589569879426 -39.3456722297372 669 147 136 105
-14.0555558884443 -41.2315914596057 670 146 139 108
-14.0975127716934 -39.5221102217988 672 149 140 109
-14.1184912133179 -37.7456352457959 673 148 141 111
-12.2832035732945 -41.4162105258427 673 150 143 112
-8.63822302814591 -47.0615149717552 675 165 157 130
-6.7974813386722 -48.9022566612289 675 174 169 139
-12.2832035732945 -43.2514981658662 673 149 142 112
-4.96408296719731 -52.6616418772729 676 240 232 207
-18.0533914041131 4.53233976857241 683 161 155 130
-14.1814265381916 -36.0704234494832 676 147 142 112
-12.3744606577915 -36.1771406786237 678 147 144 114
-12.4109634915903 -34.4294810946647 680 149 146 116
-14.3492540711879 -19.7097281580449 684 148 143 113
-12.4839691591879 -25.305582894045 684 149 144 114
-12.5022205760873 -23.4745674235392 685 148 143 113
-14.3492540711879 -21.575013070045 684 148 143 113
-12.4474663253891 -32.6709134118052 682 146 143 113
-12.4657177422885 -30.8562600896503 683 146 143 113
-10.6342086393621 -27.2105912969895 685 152 147 116
-10.6342086393621 -29.0786032337147 685 153 148 117
-14.3702325128125 -14.1345077399133 685 147 142 112
-14.3702325128125 -17.8705316133637 685 148 143 113
-12.5204719929867 -19.7673589421328 686 148 145 115
-12.5204719929867 -21.6380979035831 686 148 145 115
-14.3492540711879 -15.9791583340449 684 147 142 112
-16.2382444495376 -10.398483866463 685 168 161 131
-16.214538983188 -8.51801868604479 684 156 151 121
-16.214538983188 -6.65273377404476 684 152 147 117
-23.7102921964383 10.1496474375139 685 174 165 142
-21.810393719188 8.26954552195543 684 182 174 149
-25.7276664930652 12.0878354873733 689 161 154 131
-23.7795193269389 12.0527474308062 687 177 169 144
-21.810393719188 10.1348304339555 684 181 173 148
-19.886789775588 8.24536556428889 682 168 162 137
-18.1062563862628 6.41362356406353 685 161 155 128
0.56716093157588 -60.1243266700655 677 246 239 218
-1.28092407589664 -56.5152910787643 678 235 227 202
2.43118057500874 -60.5683763500512 682 238 231 208
0.569674200105759 -58.5363796649575 680 235 228 205
2.42761579410697 -64.1937740897032 681 255 248 228
2.43118057500874 -62.4282072126009 682 255 248 228
-3.12984683954579 -54.6663683151152 678 236 228 203
2.43831013681229 -66.3418509580455 684 238 229 208
2.44187491771406 -68.3068539049433 685 241 230 209
0.576376249518768 -70.4822010205371 688 246 239 219
0.577214005695394 -72.4635661157857 689 252 248 231
-3.20832382519811 -74.9898808058504 695 242 234 217
-7.06938059221909 -77.6595459264153 702 242 236 219
-5.13297928117 -77.3276675250203 699 240 232 215
-4.98611292119375 -51.0436976001883 679 201 195 168
2.45613404132115 -72.4635661157857 689 244 238 221
2.45613404132115 -70.5846460801599 689 240 231 210
4.31617866006615 -68.406571939841 686 242 231 208
4.30359504881231 -66.3418509580455 684 243 234 213
4.29101143755847 -64.2880380751506 682 253 246 225
-8.66381776304412 -45.3547607586735 677 154 147 117
-10.4789647176196 -45.2207732822815 675 158 151 121
-6.847833052292 -47.4101187863608 680 156 151 121
-9.03494141906817 -80.0273299175618 706 249 246 230
-9.04773878651727 -82.0686895567636 707 246 240 223
-7.10966196311493 -80.0273299175618 706 250 246 229
-3.22217270501911 -77.217041391222 698 240 232 215
-1.31493090977 -75.0977799149236 696 247 243 227
0.581402786578524 -74.8819816967773 694 252 248 232
-5.18438250716169 -80.0273299175618 706 250 244 227
-3.25448675793478 -79.9139767590383 705 243 235 218
-1.32059871541556 -77.3276675250203 699 240 234 217
0.585591567461655 -77.3276675250203 699 250 244 227
2.48108750763356 -75.0977799149236 696 252 248 232
4.3350540769469 -70.5846460801599 689 240 229 206
4.34134588257382 -72.5687382001337 690 241 231 212
-12.3014549901939 -39.6397355498399 674 151 144 113
-10.5100135019681 -43.5085650197495 677 150 143 112
-10.5100135019681 -41.6623692808255 677 152 145 114
-25.0256076759488 -91.8125279938642 723 255 251 234
-25.0256076759488 -89.8408891175835 723 253 249 232
-23.0220822591429 -89.7166278601594 722 247 241 224
-19.0313935738821 -89.4681053453113 720 243 235 218
-23.0858553401932 -91.9395162760134 724 253 249 232
-21.0531704075873 -89.7166278601594 722 242 234 217
-14.9786073199242 -86.7754421470127 714 252 249 235
-13.0315116661698 -84.8283464932583 714 251 247 231
-13.0680144999686 -87.0185106124105 716 253 250 236
-11.0688916202412 -84.7095392852845 713 242 236 219
-29.1291558873125 -94.3030280976423 727 244 240 224
-31.1972921413452 -94.5624587113909 729 244 240 226
-27.1466089121312 -94.3030280976423 727 240 236 220
-33.2308148301277 -94.6921740182653 730 240 236 225
-17.0679357717768 -89.4681053453113 720 243 235 218
-21.1406489549873 -92.0665045581626 725 249 243 226
-15.1044779696715 -89.4681053453113 720 243 237 220
-9.1117256237628 -84.5907320773107 712 238 232 215
-11.1309891889382 -87.1400448451094 717 252 249 235
-7.1398729912868 -82.3008499232608 709 249 245 229
-5.20641246115812 -82.3008499232608 709 250 246 230
-7.18015436218264 -84.7095392852845 713 240 234 217
-9.17571246100832 -87.1400448451094 717 247 243 227
-3.27295193102944 -82.3008499232608 709 249 245 229
4.30988685443923 -62.7028180947678 685 249 242 221
6.15986113046027 -64.3823020605981 683 251 244 223
6.16887996081234 -66.3418509580455 684 252 245 224
6.18691762151647 -68.406571939841 686 242 233 210
-16.2619499158873 -4.80144725053025 686 165 158 128
-12.3197064070933 -37.8578065243867 675 146 143 113
-27.7267893727926 14.0275686820252 692 169 162 139
-25.802347673016 14.0072976290164 691 158 151 128
-29.7850690402967 16.0066621027618 696 181 174 151
-16.3093608485867 4.56551941548728 688 164 156 129
-21.8422802597132 12.017659374239 685 180 172 147
-18.1326888773376 8.29372547962197 686 159 153 128
-19.945108807188 10.1348304339555 684 166 162 137
-23.8487464574394 13.966755522999 689 175 167 142
-21.9060533407634 13.9262134169816 687 183 175 150
-19.974268322988 12.017659374239 685 168 162 137
-16.3330663149364 6.45107538049601 689 166 159 129
-18.1855538594873 10.1940984481891 688 155 152 124
-18.1591213684125 12.0527474308062 687 158 152 127
-16.3093608485867 -2.93925262811515 688 169 162 132
-16.3093608485867 0.813133393686066 688 162 155 125
-16.3093608485867 2.68932640458667 688 162 154 127
-16.3567717812861 -1.06614990679947 690 167 160 130
4.32247046569307 -61.0124260300369 687 235 229 204
6.18691762151647 -62.7943550554901 686 236 229 206
0.573025224812263 -57.0154263980454 684 236 228 201
6.22299294292472 -70.6870911397828 690 240 229 208
8.05765658296678 -66.5358329783907 686 248 243 222
8.06940243804399 -68.5062899747387 687 252 245 224
6.23201177327679 -72.6739102844817 691 242 231 210
-14.391210954437 -12.2844030963315 686 147 142 112
-12.5387234098861 -16.0492423618258 687 144 141 111
-10.6342086393621 -30.9466151704399 685 151 146 116
-10.6186842471879 -32.7667225420451 684 149 146 116
-10.5721110706651 -34.4801126845098 681 149 146 116
-10.6497330315364 -25.3795758264837 686 151 146 115
-31.7741215773002 17.9561215163815 698 177 168 145
-33.8223309020803 19.944941156086 701 168 156 129
-35.8359266616101 20.0018454104543 703 170 157 128
-27.8469922168943 15.9836640250279 695 177 171 146
-29.8278636797224 17.9303964139225 697 182 176 151
-19.974268322988 13.8856713109642 685 173 167 142
-21.9379398812885 15.8226774808909 688 180 174 149
-12.5569748267855 -17.94879671532 688 146 143 113
-10.6807818158849 -23.5773757480219 688 148 145 115
-14.4331678376861 -8.56783166081698 688 143 140 110
-14.4541462793106 -10.4592049401358 689 146 143 113
-10.5410622863166 -38.0821490815682 679 149 144 113
-10.5255378941424 -39.874986205922 678 148 143 112
-10.5721110706651 -36.3372165223344 681 148 145 115
-8.79179143753517 -29.163504265054 687 151 146 115
-8.79179143753517 -27.2900382788786 687 151 146 115
-8.79179143753517 -32.9104362374049 687 147 144 114
-8.76619670263696 -34.6826390438902 685 146 143 113
-8.79179143753517 -31.0369702512295 687 150 145 115
-23.91797358794 15.8916717140925 691 171 165 140
-25.8770288529669 15.9376678695602 693 162 155 132
-27.8870598315949 17.9046713114635 696 173 167 142
-31.819643241451 19.8880369017178 699 172 164 139
-29.8706583191481 19.8595847745336 698 184 176 151
-25.8770288529669 17.8274960040865 693 163 156 133
-23.9525871531902 17.8017709016275 692 163 156 133
-27.9271274462955 19.8311326473495 697 176 170 145
-25.9890506228931 19.8026805201653 696 163 156 133
-29.9134529585738 21.794227184595 699 180 172 147
-31.8651649056019 21.8254063365043 700 173 165 140
-33.8705795909563 21.8877646403228 702 168 156 129
-27.9271274462955 21.7318688807764 697 174 167 144
-37.9141332583668 22.01248124796 706 172 157 128
-35.8869023752112 21.9501229441414 704 169 156 127
-52.2645923868673 24.3446348235265 718 172 167 147
-48.2139091576533 24.2768224702576 716 163 158 137
-50.166458860858 24.2768224702576 716 163 158 137
-46.1321377799948 24.2090101169888 714 174 169 149
-40.0087020034744 24.0394792338166 709 165 155 130
-42.0013193213796 24.073385410451 710 171 164 143
-54.4491529479047 24.4463533534298 721 181 176 155
-35.9888538024135 23.9377607039133 706 169 156 127
-38.0752414733457 24.0394792338166 709 168 156 129
-42.0013193213796 26.0095729653048 710 173 166 145
-40.0087020034744 25.9729397639453 709 167 157 132
-44.0612745012369 26.082839368024 712 182 175 154
-46.0675269427679 26.1194725693836 713 176 171 151
-48.2139091576533 26.2293721734623 716 166 159 138
-50.2365237475352 26.2660053748219 717 164 159 138
-40.0651317665258 27.9457605201587 710 168 158 133
-44.1231583137387 28.0638411984129 713 178 173 152
-42.1196328969328 28.0244809723281 712 175 168 147
-37.9678359966931 25.8996733612261 707 168 155 126
-33.9670769687083 23.8699483506444 704 169 157 130
-29.9990422374253 23.7682298207411 701 181 172 149
-32.0017298980545 23.8360421740099 703 172 163 140
-56.4935837355878 24.4802595300643 722 181 176 155
-52.410176209672 26.3759049789007 720 172 167 147
-54.4491529479047 26.4125381802603 721 180 175 155
-58.5434685727211 24.5141657066987 723 166 159 136
-60.4314074386989 24.4802595300643 722 164 157 134
-56.5718296964404 26.4858045829794 723 180 175 155
-58.5434685727211 26.4858045829794 723 169 162 141
-64.6366933210697 24.5819780599676 725 184 179 158
-62.5731733603106 24.5480718833331 724 172 165 142
-69.0639197185492 24.7515089431398 730 159 157 139
-66.9813105847141 24.7176027665053 729 179 176 155
-71.3466531696919 24.8532274730431 733 174 172 154
-73.4456244518778 22.8854975014202 734 176 174 163
-75.755628150272 18.9594005122825 737 160 159 153
-75.755628150272 16.9495832898497 737 204 203 197
-75.8584173336509 20.9976698618994 738 198 197 191
-66.9813105847141 26.7056037911369 729 175 172 151
-64.7258473808229 26.5957041870582 726 182 177 156
-62.6596003953387 26.5590709856986 725 176 169 148
-69.0639197185492 26.7422369924965 730 159 157 139
-60.5151074490019 26.4858045829794 723 164 157 134
-71.2493180357632 26.8155033952157 732 175 173 155
-73.5456866105316 24.921039826312 735 170 168 158
-50.3766535208895 28.3000025549212 719 164 157 136
-48.2812470196053 28.2212821027518 717 165 158 137
-46.1967486172217 28.1425616505823 715 178 171 150
-35.9378780888124 25.8264069585069 705 169 156 127
-44.1231583137387 30.0082098274421 713 179 175 151
-46.1967486172217 30.0923843290619 715 174 169 148
-40.0087020034744 29.8398608242026 709 167 157 130
-42.0604761091562 29.9240353258224 711 175 168 145
-38.0752414733457 27.9064002940739 709 169 157 130
-54.6001908201597 28.4574434592602 723 182 177 157
-56.4935837355878 28.4180832331754 722 180 175 155
-52.5557600324766 28.4180832331754 722 172 167 147
-58.6244415582989 28.4968036853449 724 165 158 137
-60.7662074799106 28.5755241375143 726 163 156 135
-64.9933095600825 28.6936048157685 729 183 178 157
-63.0053085354509 28.6936048157685 729 181 174 153
-69.1585278277527 28.772325267938 731 162 160 142
-67.2569538381492 28.8116854940227 732 171 168 147
-33.9670769687083 25.7897737571473 704 166 156 129
-35.9888538024135 27.7883196158197 706 168 156 127
-73.5456866105316 26.9254029992944 735 203 201 191
-71.3466531696919 28.8510457201075 733 176 174 156
-8.70220986539144 -41.8469883470625 680 150 145 114
-8.70220986539144 -43.7013651601619 680 152 145 114
-6.86797373773991 -45.6897294496533 682 154 147 117
-5.00079955719137 -49.3369433871065 681 159 154 124
-3.14369571936679 -53.0511510627557 681 237 229 202
-8.76619670263696 -36.5506509806154 685 148 145 115
-8.72780460028965 -40.1102368620041 682 149 144 113
-8.74060196773875 -38.3064916387498 683 148 146 114
-10.7118306002334 -21.7642675706594 690 148 145 115
-10.7273549924076 -19.9114359023524 691 146 143 113
-8.83018353988249 -23.6459146310103 690 147 144 114
-8.81738617243338 -25.4905652251418 689 148 146 114
-6.94853647953159 -27.4092087517121 690 150 145 114
-6.94853647953159 -31.1725028724139 690 149 144 114
-6.95860682225554 -25.5645581575806 691 146 144 112
-6.95860682225554 -29.3333063277326 691 147 142 111
-5.06688941918068 -27.4092087517121 690 148 143 112
-6.92839579408367 -34.8345338134255 688 147 144 114
-6.94853647953159 -33.0541499327648 690 146 143 113
-12.5934776605843 -12.3560322689049 690 145 142 112
-12.5934776605843 -14.2376793292558 690 144 139 109
-10.7584037767561 -18.0792385519139 693 147 144 114
-10.7428793845819 -16.1660490747939 692 144 141 111
-8.8685756422298 -21.8588948209666 693 146 143 113
-14.4751247209352 -4.82944402750127 690 143 140 110
-14.4541462793106 -6.70136486888427 689 143 140 110
-20.0325873545879 15.7996794031571 687 176 169 146
-18.1855538594873 13.9464844699903 688 155 149 124
-21.9698264218137 17.7245955942505 689 181 173 148
-18.238418841637 15.8686736363586 690 156 150 125
-20.0617468703879 17.6988704917915 688 175 168 145
-16.3567717812861 8.34208539495504 690 165 159 132
-16.3804772476358 10.2385494588644 691 163 157 130
-1.29037041863924 -55.0695126242237 683 240 232 205
-1.29414895573628 -53.3627584111419 685 164 159 129
2.4490044795176 -59.1389600438614 687 235 228 205
8.06940243804399 -64.7593580023878 687 240 233 210
-3.15754459918778 -51.4195716620453 684 163 158 128
4.37280491070842 -74.9898808058504 695 243 237 220
2.49534663124064 -77.4382936588187 700 251 247 230
-1.33193432670668 -79.9139767590383 705 240 232 215
-5.03017282918662 -47.7587226009664 685 154 149 119
8.13987756850726 -72.8842544531778 693 241 230 209
8.12813171343005 -70.8919812590286 692 241 232 211
9.98628706362653 -68.8054440794319 690 251 244 223
-6.88811442318783 -43.9584320140452 684 153 146 115
-6.89818476591179 -42.1546867907909 685 150 145 114
-5.04485946518425 -46.0246981406332 687 154 147 116
-1.33949140090076 -82.3008499232608 709 242 238 222
0.590618104521412 -79.9139767590383 705 241 233 216
4.39797213321609 -77.3276675250203 699 251 247 231
6.27710592503711 -75.0977799149236 696 241 231 212
6.30416241609331 -77.3276675250203 699 249 245 229
0.594806885404542 -82.4169301065094 710 240 234 217
2.51317053574951 -79.9139767590383 705 245 239 222
2.52386487845482 -82.1847697400122 708 241 233 216
4.42943116135068 -79.8006236005148 704 250 246 230
8.22209855404774 -77.4382936588187 700 240 232 215
8.1868609888161 -75.2056790239968 697 243 231 212
10.1020701020454 -75.31357813307 698 239 229 210
10.044178582836 -72.9894265375258 694 241 231 212
10.044178582836 -71.0968713782743 694 253 246 225
10.0152328232312 -67.1177790394262 692 239 232 209
-25.2332890674504 -94.5624587113909 729 239 235 218
-23.2452880428188 -94.5624587113909 729 245 241 224
-19.1371235381814 -91.9395162760134 724 240 234 217
-17.1627576371756 -91.9395162760134 724 242 234 217
-15.1883917361697 -91.9395162760134 724 242 234 217
-13.177523001365 -89.7166278601594 722 252 248 234
-21.3156060497872 -94.8218893251396 731 251 247 230
-19.2957184846304 -94.6921740182653 730 252 246 229
-7.22043573307847 -87.1400448451094 717 240 234 217
-5.24312905115219 -84.8283464932583 714 244 240 223
-9.23969929825385 -89.7166278601594 722 252 249 235
-11.2086111498094 -89.7166278601594 722 253 250 236
-5.26515900514862 -87.1400448451094 717 241 235 218
-29.3294939608153 -96.947786730821 732 251 247 237
-31.3256760596224 -96.947786730821 732 146 143 136
-25.3371297632012 -96.947786730821 732 240 236 220
-27.2959712720329 -96.8153443992215 731 247 243 229
-23.3090611238691 -96.8153443992215 731 237 231 214
-33.458423150882 -97.3451137256194 735 171 170 164
-35.4145376349885 -95.2110352457626 734 147 144 137
-13.2322772520632 -92.0665045581626 725 243 235 218
-17.3286959016234 -94.8218893251396 731 251 243 226
-11.2551843263322 -92.0665045581626 725 244 240 224
-3.30064969067144 -84.947153701232 715 251 247 231
-7.28085778942223 -89.8408891175835 723 251 247 231
-3.31449857049244 -87.2615790778082 718 244 240 223
-1.35082701219188 -84.947153701232 715 253 249 233
-1.35460554928892 -87.1400448451094 717 250 247 231
-5.30187559514269 -89.7166278601594 722 242 238 222
4.45459838385836 -82.1847697400122 708 241 235 218
0.598995666287673 -84.947153701232 715 246 242 226
2.54168878296369 -84.7095392852845 713 245 239 223
4.34763768820074 -59.4832916889494 691 241 233 206
2.45969882222292 -57.5155617173265 690 226 218 191
8.12813171343005 -63.3435768198238 692 234 227 204
6.22299294292472 -61.2788558380283 690 236 230 203
-14.5170816041843 -2.95634130618559 692 140 137 107
-12.6299804943831 -8.61764463558917 692 144 141 111
-23.9872007184405 19.7173241386129 693 159 152 129
-22.0017129623388 19.6319677570604 690 181 173 148
-25.9890506228931 21.7006897288671 696 159 152 129
-14.5380600458088 2.70887092787582 693 143 137 110
-14.5380600458088 0.819042793349482 693 141 135 108
-14.5380600458088 -1.07078534117686 693 140 135 105
-14.5380600458088 4.59869906240216 693 143 138 108
-14.5800169290579 6.50725310514475 695 148 141 111
-16.4041827139855 12.140467572224 692 161 155 128
-20.0617468703879 19.5750635026922 688 175 169 144
-18.2648513327118 17.7760457991685 691 159 153 128
-18.2648513327118 19.6604198842446 691 159 153 128
-14.5800169290579 8.40253528912138 695 148 141 111
-16.4278881803352 14.0478397350339 693 162 154 129
-12.6664833281819 -6.74999596372378 694 141 138 108
-12.6664833281819 -4.85744080447229 694 139 136 106
-12.7029861619807 -1.07542077555425 696 139 136 108
0.57805176187202 -55.6339146569756 690 212 205 175
4.3665131050815 -57.8489852635139 694 174 167 137
6.25906826433298 -59.7415404227654 694 197 190 160
0.57805176187202 -53.7522675966247 690 161 156 126
-1.29981676138184 -51.720270911531 688 157 152 122
11.9367337420874 -72.9894265375258 694 253 246 226
11.9367337420874 -71.0968713782743 694 252 245 224
11.9023339330324 -69.0048801492274 692 240 233 210
10.044178582836 -65.4192059005199 694 240 234 209
13.7894350428336 -72.7790823688298 692 249 244 224
-12.6482319112825 -10.5199260138086 693 145 142 112
-8.88137300967891 -16.2127717599812 694 145 142 112
-10.7584037767561 -14.2995822828612 693 144 141 111
-6.91832545135971 -36.6573682097559 687 147 144 114
-6.91832545135971 -38.5308341959313 687 147 145 113
-6.9686771649795 -23.7144535139987 692 146 143 113
-28.0072626756966 23.7004174674722 699 174 165 142
-29.9562475979995 25.643240951709 700 182 173 150
-32.0017298980545 25.7531405557877 703 171 162 139
-24.0564278489411 21.6695105769578 695 158 151 128
-27.967195060996 25.5699745489898 698 176 167 144
-26.0263912128685 23.6326051142033 697 161 153 128
-20.0909063861879 21.4824356655021 689 177 169 144
-18.238418841637 21.5136148174113 690 162 154 129
-22.0654860433891 21.5759731212299 692 178 170 143
-8.88137300967891 -19.9978820784842 694 146 143 113
-8.89417037712801 -18.1314152865515 695 146 143 113
-5.08891937317712 -25.6385510900193 693 146 143 113
-10.8049769532789 -10.5654668190631 696 145 142 112
-10.7739281689304 -12.4276614414782 694 145 142 112
-5.08891937317712 -31.3080354935983 693 148 143 113
-3.19447494537712 -27.4886557336011 692 146 141 111
-5.08157605517831 -29.3757568434023 692 148 143 113
-6.91832545135971 -40.4043001821068 687 149 147 115
-5.05954610118187 -38.6430054745221 689 146 143 113
-5.08157605517831 -35.0370601728059 692 149 144 114
-3.18985865210345 -36.8708026680368 691 147 144 114
-5.0742327371795 -36.8708026680368 691 147 144 114
-5.05954610118187 -40.5219255101479 689 150 147 117
-25.9890506228931 25.4967081462707 696 161 153 128
-24.1256549794416 23.6326051142033 697 160 152 127
-22.1611456649644 23.5647927609344 695 176 166 139
-20.1783849335879 23.4630742310311 692 181 171 144
-24.1256549794416 25.5333413476302 697 161 151 126
-22.1930322054896 25.4967081462707 696 174 162 133
-30.041836876851 27.6308787114808 702 179 172 149
-32.0017298980545 27.6702389375655 703 170 162 137
-28.0473302903972 27.5521582593114 700 178 169 146
-26.1010723928194 27.5127980332266 699 161 153 128
-34.0153256575843 27.748959389735 705 166 156 129
-24.1602685446919 27.4734378071419 698 160 150 125
-54.5246718840322 30.386995084731 722 183 177 160
-52.4829681210743 30.3449078339211 721 176 171 151
-48.2139091576533 30.1344715798717 716 162 155 134
-50.3766535208895 30.2607333323014 719 165 158 137
-36.0908052296158 29.7977735733927 708 170 158 129
-38.0215387350194 29.7977735733927 708 168 156 127
-56.5718296964404 30.4290823355409 723 182 177 157
-34.0635743464603 29.713599071773 706 166 156 129
-32.0927732263562 29.6715118209631 705 170 162 137
-42.1787896847094 31.9525784564714 713 172 168 144
-40.2344210556801 31.9525784564714 713 167 157 130
-38.1826469499983 31.8629499054013 711 168 156 127
-36.1927566568182 31.8181356298663 710 168 156 127
-44.3088097512439 32.0870212830765 716 178 174 150
-46.3259702916755 32.1318355586115 717 172 167 146
-50.4467184075667 32.2662783852165 720 165 158 137
-48.3485848815573 32.1766498341465 718 165 158 137
-42.237946472486 33.9444883857608 714 174 170 146
-40.2344210556801 33.8969470855006 713 168 158 131
-34.2083204130883 31.7733213543313 709 167 155 126
-36.2437323704193 33.8018644849803 711 168 155 126
-38.2363496883246 33.8494057852405 712 169 157 128
-44.3706935637456 34.0871122865413 717 178 174 150
-30.1274261557024 29.6294245701532 704 180 173 150
-28.1274655197983 29.5452500685335 702 179 170 147
-26.1757535727702 29.5031628177236 701 160 152 127
-58.7054145438766 30.5132568371606 725 164 157 136
-52.6285519438789 32.4007212118216 723 176 171 151
-54.7512286924146 32.4903497628917 725 181 175 158
-58.8673605150322 32.5799783139617 727 161 154 133
-60.9336075005164 30.6395185895903 728 167 160 139
-56.8065675789982 32.5351640384267 726 175 168 147
-65.0824636198357 30.72369309121 730 180 175 154
-63.0053085354509 30.6816058404001 729 180 173 150
-73.5456866105316 28.9297661722769 735 188 186 176
-71.3466531696919 30.8499548436397 733 179 176 160
-69.2531359369562 30.8078675928298 732 162 158 141
-67.1650727536708 30.7657803420199 731 169 164 143
-73.7458109278392 31.0183038468792 737 161 159 149
-76.1667848837877 23.1037515647852 741 153 155 147
-64.9933095600825 32.6696068650318 729 184 177 154
-62.9188815004228 32.6247925894967 728 179 172 149
-69.3477440461597 32.8488639671718 733 162 158 141
-67.1650727536708 32.7592354161018 731 161 158 137
-60.9336075005164 32.6247925894967 728 167 160 137
-62.6596003953387 34.4674426886227 725 176 169 146
-71.5413234375492 32.9384925182419 735 175 173 155
-52.6285519438789 34.3723600881023 723 177 172 152
-50.4467184075667 34.2297361873218 720 164 159 139
-46.3905811289023 34.1346535868015 718 171 166 145
-48.4832606054614 34.2297361873218 720 162 157 136
-32.2293382188088 31.7285070787963 708 164 156 131
-42.3562600480392 35.9921206894859 716 174 170 146
-44.4325773762474 36.0926573394565 718 178 174 150
-40.347280581783 35.9418523645005 715 165 157 132
-46.5198028033561 36.1931939894271 720 170 165 144
-34.2565691019643 33.7543231847201 710 166 154 125
-38.3437551649772 35.8915840395152 714 168 156 129
-54.7512286924146 34.4674426886227 725 179 174 154
-56.8848135398509 34.562525289143 727 167 160 139
-60.6825074696077 34.4674426886227 725 163 156 133
-58.8673605150322 34.562525289143 727 162 155 132
-64.9041555003293 34.6100665894032 728 182 175 152
-67.1650727536708 34.7526904901837 731 162 157 136
-63.0053085354509 36.645608914295 729 181 172 149
-69.3477440461597 34.847773090704 733 162 158 141
-71.5413234375492 34.9428556912244 735 174 171 155
-30.2558100739795 31.6836928032612 707 177 170 147
-32.2748598829596 33.70678188446 709 166 156 131
-73.9459352451468 33.117749620382 739 180 180 172
-5.05220278318306 -42.3393058570279 688 152 147 116
-5.05220278318306 -44.2154988679285 688 153 148 117
-3.17139347900878 -49.7716301129841 687 154 149 118
-3.18524235882978 -38.6990911138175 690 148 145 115
-7.00895853587534 -21.9535220712738 696 142 141 111
-5.09626269117593 -23.7829923969872 694 146 143 113
-7.02909922132326 -20.1131436466599 698 146 143 113
-7.0190288785993 -16.2828557877621 697 146 143 115
-8.89417037712801 -14.3408509185982 695 145 142 112
-3.20832382519811 -25.712544022458 695 148 143 113
-5.10360600917475 -33.2936727583645 695 147 144 114
-3.20370753192445 -29.4606578747416 694 148 143 113
-3.20832382519811 -31.3983905743879 695 148 143 113
-1.31304164122148 -27.6078262064346 695 145 140 110
-3.19909123865078 -35.087691762651 693 148 143 113
-3.21294011847178 -33.3415773234845 696 147 142 112
-3.21755641174545 -23.8858007214698 697 146 143 113
-3.18985865210345 -40.6395508381889 691 148 145 115
-1.31115237267296 -37.0308785117476 694 144 141 111
-8.90696774457712 -12.4634760277649 696 144 141 111
-10.8049769532789 -8.66745761036136 696 140 135 105
-7.03916956404722 -18.2357687558266 699 146 143 113
-7.03916956404722 -14.4233881900722 699 142 139 109
-7.02909922132326 -12.4992906140516 698 142 139 109
-5.13297928117 -20.1419590387038 699 142 141 111
-5.13297928117 -22.048149321581 699 143 142 112
-12.7212375788801 -2.97770215377364 697 137 134 104
-10.8049769532789 -4.8714391929578 696 140 135 105
-16.4752991130345 15.9836640250279 695 158 150 125
-18.2912838237867 23.4630742310311 692 161 153 126
-16.4990045793842 17.9046713114635 696 157 149 122
-16.4515936466849 21.6383314250485 694 156 148 121
-16.4990045793842 19.8026805201653 696 155 149 122
-14.621973812307 10.3274514802148 697 144 139 109
-14.6429522539315 12.2457317419253 698 147 139 112
-3.18524235882978 -48.107326415572 690 152 147 116
0.579727274225272 -52.0209701610166 692 151 146 115
-1.3054845670274 -50.0614212635692 691 152 150 118
8.15162342358447 -61.6340955820169 694 211 204 174
-3.18524235882978 -46.2256793552211 690 152 147 116
10.1454887414525 -77.548919792617 701 239 231 214
6.3582753982057 -79.9139767590383 705 252 248 232
-3.18524235882978 -42.4623852345193 690 150 148 116
-3.18524235882978 -44.3440322948702 690 153 148 117
13.8691427598442 -75.0977799149236 696 252 247 227
12.0055333601975 -75.31357813307 698 246 239 219
13.8292889013389 -71.0968713782743 694 234 227 204
15.6991901066126 -72.8842544531778 693 239 232 212
13.8890696890969 -69.503470323716 697 233 226 203
11.9711335511424 -67.5057430801165 696 236 229 206
-1.30737383557592 -42.5854646120107 692 149 147 115
-1.30926310412444 -46.426660569809 693 152 147 116
-1.30926310412444 -48.3164887043354 693 151 146 115
-1.30737383557592 -44.4725657218119 692 152 147 116
6.37631305890983 -82.0686895567636 707 245 239 223
4.47976560636603 -84.5907320773107 712 239 233 216
8.292573684511 -80.0273299175618 706 249 245 229
12.05713307378 -77.548919792617 701 240 233 213
13.9289235476022 -77.3276675250203 699 245 238 218
8.31606539466542 -82.1847697400122 708 254 248 232
2.552383125669 -87.0185106124105 716 253 249 235
6.41238838031809 -84.471924869337 711 239 233 216
10.2323260202666 -80.1406830760852 707 244 238 221
10.2323260202666 -82.0686895567636 707 252 248 232
12.1431325964175 -80.0273299175618 706 240 232 215
15.8124598765016 -77.217041391222 698 250 244 227
15.7898059225238 -75.2056790239968 697 252 246 229
17.6905421559507 -73.3049427905699 697 230 223 202
15.7898059225238 -71.4042065571429 697 231 223 198
17.7666850920596 -75.5293763512163 700 246 241 221
12.022733264725 -65.890525827757 699 248 242 215
10.1020701020454 -63.8927985841575 698 223 217 190
-19.375015957855 -97.0802290624205 733 249 243 226
-21.3739250813871 -97.0802290624205 733 242 236 219
-15.3142623859169 -94.6921740182653 730 245 233 216
-13.3235343365602 -94.6921740182653 730 244 232 215
-11.3017575028549 -94.4327434045166 728 246 234 217
-9.27809140060116 -92.0665045581626 725 251 247 233
-15.3771977107906 -97.0802290624205 733 255 247 232
-23.5003803670198 -99.6198156112512 737 243 239 223
-17.3998123006725 -97.2126713940199 734 255 247 230
-13.360037170359 -96.947786730821 732 214 203 188
0.601508934817551 -87.2615790778082 718 251 248 232
-1.36027335493448 -89.4681053453113 720 242 236 219
-3.33296374358711 -89.7166278601594 722 242 236 219
-7.32113916031806 -92.3204811224609 727 251 248 232
-3.34219633013444 -91.9395162760134 724 243 239 222
-5.33859218513675 -92.3204811224609 727 251 247 231
-1.36405189203153 -91.685539711715 722 241 235 218
0.60402220334743 -89.5923666027354 721 247 243 227
-25.5101975894526 -99.6198156112512 737 253 250 236
-27.5946959918362 -99.8901543239004 739 198 193 186
-21.5197226603871 -99.7549849675758 738 238 232 215
-9.32928087039758 -94.5624587113909 729 245 235 218
-15.4611114772887 -99.6198156112512 737 255 247 231
-13.4330428379566 -99.4846462549265 736 243 236 223
-11.3638550715519 -96.947786730821 732 218 205 190
-7.35135018848994 -94.6921740182653 730 248 240 223
-3.35604520995544 -94.3030280976423 727 252 248 232
-1.37160896622561 -94.1733127907679 726 246 242 225
4.51122463450062 -87.1400448451094 717 248 242 226
2.57020703017786 -89.5923666027354 721 252 249 233
0.605697715700682 -91.8125279938642 723 238 234 217
4.53010005138138 -89.4681053453113 720 252 249 235
6.45748253207841 -87.0185106124105 716 240 236 220
12.19473231 -82.3008499232608 709 248 242 225
8.37479467005148 -84.7095392852845 713 242 236 219
10.3191632990807 -84.7095392852845 713 247 241 225
8.41003223528311 -87.0185106124105 716 238 232 215
2.48108750763356 -54.2196786192041 696 155 150 119
2.48108750763356 -56.1176878279058 696 166 159 129
4.39168032758917 -56.2789455515492 698 158 151 121
6.27710592503711 -58.0156970366076 696 161 154 123
10.1165429818477 -62.0781452620026 699 170 163 133
8.21035269897052 -60.1719549791254 699 166 159 129
-12.7212375788801 2.72450654650714 697 141 138 110
-10.8205013454531 -6.77917462062749 697 140 135 105
-10.8205013454531 -1.07696592034671 697 136 133 103
-12.7394889957795 0.824952193012898 698 139 136 108
-10.8360257376274 -2.98197432329124 698 136 133 103
-8.93256247947533 -4.88543758144332 698 139 134 104
-8.93256247947533 -8.69236409774746 698 141 136 106
-20.2367039651878 25.4234417435515 694 179 170 140
-18.3441488059363 25.4234417435515 694 159 151 124
-22.2249187460147 27.4340775810572 697 173 161 132
-12.7394889957795 4.63187870931704 698 143 137 110
-10.8670745219759 2.73623326048063 700 141 138 110
-12.7394889957795 6.53534196746911 698 142 137 107
-12.7577404126789 8.45089520445445 699 138 135 105
-12.7759918295783 10.3719024908901 700 139 136 106
-10.8670745219759 6.55406787568536 700 141 136 106
-16.4990045793842 23.5986989375689 696 156 148 121
-14.6849091371806 14.1897371060948 700 148 140 113
-8.95815721437354 -6.80835327753119 700 136 131 101
-8.94535984692443 -10.6110076243177 699 143 138 108
-8.95815721437354 -1.0816013547241 700 136 133 103
-8.97095458182264 -2.99479083184407 701 135 132 102
-10.8825989141502 0.828497832810948 701 137 134 106
0.580565030401898 -50.2063168388617 693 150 148 114
2.48465228853533 -52.3968442228737 697 152 147 116
4.39797213321609 -54.4533841304937 699 153 148 117
8.21035269897052 -58.2657646962482 699 157 150 119
6.31318124644537 -56.4402032751926 700 152 147 116
6.32220007679744 -54.6091878046868 701 152 147 116
2.48108750763356 -50.4236602018005 696 151 149 115
0.583078298931777 -48.5256509930987 696 151 149 117
15.8577677844572 -69.8026244284092 700 237 229 202
-5.14032259916881 -16.352939815543 700 142 139 111
-24.1602685446919 29.376901065294 698 161 151 126
-28.2476683639 31.5940642521912 705 179 173 148
-20.2950229967878 27.3947173549724 696 179 170 140
-22.1930322054896 29.2927265636742 696 174 162 133
-24.2294956751924 31.3699928745161 700 159 151 126
-5.14766591716762 -18.2879454904642 701 141 140 110
-1.32059871541556 -25.8605298873355 699 146 141 111
-1.31682017831852 -29.5880094217506 697 145 140 110
-7.05931024949513 -10.6413681611541 701 142 137 107
-7.05931024949513 -8.7297238288266 701 142 137 107
-7.06938059221909 -6.82780571546699 702 142 137 107
-1.31682017831852 -35.2902181220314 697 145 142 112
-1.31870944686704 -31.5339231955723 698 145 140 110
-1.30926310412444 -40.75717616623 693 148 145 115
-1.30926310412444 -38.8673480317037 693 146 143 113
0.583916055108403 -37.1909543554583 697 146 144 112
0.583078298931777 -39.0356049495898 696 144 142 110
-22.2249187460147 31.235550047911 697 168 159 129
-20.2950229967878 29.2927265636742 696 179 169 142
-16.5464155120836 25.5699745489898 698 159 152 122
-18.4498787702357 27.4734378071419 698 158 150 123
-20.2950229967878 31.190735772376 696 179 170 140
-18.4234462791608 29.3348138144841 697 157 149 124
-22.2249187460147 33.1362862813379 697 169 160 130
-20.2950229967878 33.0887449810778 696 181 172 142
-18.4498787702357 31.280364323446 698 158 150 125
-16.6175319111327 27.5915184853961 701 157 150 120
-26.2877753426965 31.5492499766562 704 169 161 136
-28.2476683639 33.5166166834193 705 180 174 149
-26.2130941627457 33.3739927826388 702 163 155 128
-30.2558100739795 33.6116992839396 707 174 167 144
-24.2294956751924 33.2789101821184 700 159 151 124
-52.7741357666836 36.4445356143537 725 179 174 153
-54.8267476285421 36.494803939339 726 177 172 151
-50.6569130675982 36.3439989643831 723 166 161 140
-48.6179363293655 36.2937306393978 722 162 157 136
-32.2748598829596 35.6402424145886 709 163 152 129
-34.3048177908403 35.7407790645593 711 167 155 128
-56.9630595007035 36.5953405893096 728 167 160 137
-30.2130154345538 35.4894374396327 706 174 165 142
-28.2076007491994 35.3889007896621 704 180 172 147
-30.1702207951281 37.3617215458755 705 180 171 148
-42.3562600480392 37.9446703926906 716 173 168 148
-38.3437551649772 37.8386796932696 714 166 153 129
-40.4037103448345 37.9446703926906 716 164 155 132
-36.3966595112228 35.8915840395152 714 169 156 127
-36.3456837976216 37.7856843435592 713 167 154 127
-34.2565691019643 37.6266982944278 710 166 154 127
-32.2293382188088 37.5207075950069 708 165 154 131
-46.5198028033561 38.1566517915324 720 171 166 145
-44.4325773762474 38.0506610921115 718 178 173 153
-52.7013438552813 38.3686331903743 724 178 173 152
-48.6179363293655 38.2626424909533 722 161 156 135
-50.6569130675982 38.3156378406638 723 166 161 140
-42.4745736235924 40.0086648447665 718 175 170 149
-38.3974579033035 39.8414977214597 715 167 154 130
-40.4601401078859 39.9529424703309 717 164 155 132
-36.3966595112228 39.785775347024 714 166 153 126
-32.2748598829596 39.507163474846 709 163 152 129
-34.3048177908403 39.6186082237172 711 165 153 126
-34.3048177908403 41.5575228032962 711 166 154 127
-46.584413640583 40.1758319680733 721 169 164 143
-44.4944611887491 40.0643872192021 719 179 174 153
-28.1675331344989 37.2557308464546 703 181 173 148
-26.2504347527211 35.3386324646768 703 162 154 127
-26.2130941627457 37.2027354967441 702 162 154 129
-24.298722805693 35.2883641396914 702 159 151 124
-22.3205783675901 35.1878274897208 700 169 160 130
-24.298722805693 37.2027354967441 702 161 151 126
-60.9336075005164 36.5953405893096 728 164 155 132
-59.0293064861877 36.645608914295 729 163 154 131
-54.6757097562871 38.3686331903743 724 179 174 153
-56.8065675789982 38.4746238897952 726 171 164 143
-58.9483335006099 38.5806145892161 728 163 154 131
-61.0173075108193 38.6336099389266 729 165 157 132
-65.0824636198357 36.6958772392803 730 178 171 148
-67.4407160071058 36.8969505392215 734 163 159 135
-71.7359937054064 37.0477555141775 737 174 172 154
-69.4423521553632 36.8969505392215 734 160 157 137
-74.1460595624543 35.2281034927854 741 187 187 179
-63.178162605507 38.7396006383475 731 180 171 148
-65.2607717393421 38.7925959880579 732 179 172 149
-71.7359937054064 39.0575727366103 737 173 171 153
-69.4423521553632 38.8985866874789 734 157 154 134
-67.4407160071058 38.8985866874789 734 162 158 134
-54.9022665646696 40.510166214687 727 175 170 149
-52.7741357666836 40.3987214658157 725 176 171 150
-50.7970428409526 40.3987214658157 725 167 162 141
-48.6852741913175 40.2872767169445 723 160 155 134
-30.2558100739795 39.3957187259748 707 176 167 144
-42.4154168358158 41.9082191982607 717 176 171 150
-40.4037103448345 41.8497697991 716 167 156 133
-44.4944611887491 42.0251179965822 719 177 172 152
-38.3437551649772 41.7328710007785 714 165 152 128
-46.584413640583 42.1420167949037 721 169 164 143
-36.3456837976216 41.6744216016177 713 168 155 128
-48.6852741913175 42.2589155932252 723 161 154 133
-32.3203815471105 41.4990734041354 710 162 151 128
-56.9630595007035 40.5658885891226 728 164 156 131
-56.8848135398509 42.4927131898683 727 161 154 131
-59.1102794717655 40.6773333379938 730 162 154 129
-61.1010075211222 40.6773333379938 730 162 154 129
-69.5369602645667 40.9559452101718 735 154 150 133
-63.4374437105912 40.9002228357362 734 178 169 146
-65.4390798588485 40.9002228357362 734 183 175 150
-63.2645896405351 42.784960185672 732 179 170 147
-61.0173075108193 42.6096119881898 729 163 155 130
-59.0293064861877 42.6096119881898 729 160 152 127
-67.6244781760625 41.0116675846074 736 165 158 135
-71.9306639732637 41.1788347079142 739 172 169 153
-74.2461217211081 37.2990971391041 742 119 119 109
-28.2476683639 39.2842739771036 705 178 169 146
-30.2986047134052 41.3821746058139 708 176 167 144
-74.3461838797619 39.375544834873 743 166 166 156
0.58224054275515 -42.7700836782477 695 148 146 114
-1.32248798396408 -23.9886090459525 700 148 143 113
-3.23602158484011 -22.1112341551192 701 146 143 113
-3.24063787811378 -20.2284052148356 702 147 144 114
-5.16235255316525 -14.5059254615461 703 143 140 112
-3.24987046466111 -16.4463851859175 704 144 141 113
-5.15500923516644 -12.570919786625 702 144 139 109
0.586429323638281 -27.8064436611572 700 143 138 108
-1.32248798396408 -33.5331955839643 700 149 144 114
0.584753811285029 -35.3408497118765 698 143 141 109
0.587267079814907 -31.6694558167567 701 146 141 111
0.588104835991533 -29.8002620000989 702 145 140 110
0.588104835991533 -33.6290047142042 702 145 140 110
-1.33004505815816 -22.2058614054264 704 145 142 112
0.588942592168159 -24.0914173704351 703 146 141 111
0.588942592168159 -26.0085157522129 703 144 139 109
0.581402786578524 -46.493654308005 694 149 147 115
0.58224054275515 -44.6653658622243 695 151 148 118
0.583916055108403 -40.9924268223121 697 149 147 115
-7.05931024949513 -4.90643516417158 701 141 136 106
-3.25448675793478 -18.3922989597393 705 145 142 112
-5.16969587116406 -10.6869089664087 704 144 139 109
-5.16235255316525 -8.7546303162127 703 144 139 109
-3.25448675793478 -12.624641666055 705 147 142 112
-1.33193432670668 -20.3148513909674 705 145 142 112
-14.6849091371806 21.8254063365043 700 149 142 112
-14.7478444620543 16.1676486468987 703 148 138 111
-14.7268660204297 19.9733932832702 702 147 140 110
-14.7478444620543 18.0847470286765 703 147 140 110
-14.7268660204297 23.8021359973755 702 149 142 112
-12.8307460802765 12.3334518833431 703 139 133 106
-10.9291720906729 10.4311705051237 704 139 136 106
-10.9136476984987 8.49925511978752 703 138 135 105
-12.8489974971759 14.2708213181296 704 144 136 109
2.49178185033887 -48.7348132818621 699 150 148 116
17.7666850920596 -77.4382936588187 700 252 246 229
14.0484851231181 -79.9139767590383 705 238 231 211
