ply
format ascii 1.0
element vertex 760
property float x
property float y
property float z
property uchar red
property uchar green
property uchar blue
element face 0
property list uchar int vertex_indices
end_header
-7.84127062772146 47.8396585041462 707.028195154392 114 110 190
-6.57869557684668 50.3496593338513 709.229062269898 165 137 189
-8.21721715607276 41.4363651760289 706.887632877691 137 102 171
-8.80195867170056 39.6880887785608 707.514361274069 120 102 171
-10.6381173342949 35.4888966863291 705.920591631339 88 147 159
-10.0558327157916 37.2298273846482 705.29649654755 113 104 171
-10.2060744371681 31.1226003987032 706.085936631996 113 199 191
-9.8485744649042 32.6302407006346 704.512952005131 112 199 193
-11.0720032401755 39.8668326449086 705.752107418063 119 99 185
-9.90579607175266 43.3535911743128 704.50216170876 121 100 183
-10.4888996559641 41.6102119096107 705.127134563412 122 101 184
-9.09893188434725 45.3443490727391 704.822061413706 123 104 187
-11.0098678390781 29.1581735695284 705.757631089254 105 192 184
-11.5905145261651 27.4221400039754 706.379970631316 101 186 182
-9.57250739275233 22.2081732436443 705.453424698039 99 182 178
-12.2438611293614 31.548403357026 705.267119758471 101 180 203
-10.3756869062917 20.262731784572 705.119346630089 97 179 169
-11.1595982107525 23.0782003555459 706.538851271321 94 171 182
-11.3095336597642 17.0147639452831 707.315176699044 112 155 169
-10.5071731119331 18.9577568379722 707.650132537857 110 182 173
-12.3192536535101 19.6110303572058 707.781774813718 86 90 156
-11.6668285546907 15.490586839632 708.893056080254 79 81 143
-11.0262689963574 24.3715356311922 704.011204576171 97 183 175
-12.2466562760695 13.757001840462 709.514517851452 95 79 132
-12.1826485762824 20.9141598983841 705.250617035114 84 151 180
-12.833230666348 25.0229637450043 704.142474981196 84 168 168
-13.19154960432 23.51287487669 705.716337378925 36 103 157
-12.8264839974483 12.0234168412919 710.13597962265 100 90 101
-13.4789090962677 16.1438603588657 709.024698356114 86 72 153
-13.1870547552074 10.4894454701089 711.717370087313 212 218 112
-13.9131100649744 7.40681132944465 714.885417641818 213 219 91
-13.5492634443827 8.95057696615976 713.300516093702 209 217 97
-14.6457171004069 4.30458865771644 718.060487363229 125 118 88
-14.2785946169825 5.85814855996361 716.47207473166 209 215 95
-15.0144775152475 2.7461316227033 719.650655536524 73 61 84
-13.7717818745392 0.339045489736776 720.144626044534 64 82 134
-15.0016947325775 11.1436416920533 711.849198298592 58 92 135
-14.5678000362355 19.8369001457922 706.001593669611 74 74 152
-13.3390281562073 17.4567841655761 706.490029494058 89 77 158
-13.989610246273 21.5655880121962 705.381887440139 40 90 159
-15.5075846270026 16.5883291455417 708.198673380265 85 72 157
-14.2770722768894 14.2048418962318 708.687801040157 80 71 152
-14.6385645390253 12.6766903605255 710.267621898511 61 81 157
-15.3634037810639 17.8969589804475 705.664510418236 89 76 161
-16.2356880228608 13.5338714795507 711.358686967809 38 81 161
-16.0865933826732 14.8571927127546 708.8192573806 58 75 157
-15.5823414196645 9.40760812650018 712.471537840653 85 110 133
-16.8163347099478 11.7978379139977 711.98102650987 31 80 155
-16.3780477031617 7.47593536301528 712.132007212106 149 147 147
-17.3969813970347 10.0618043484446 712.603366051932 36 80 143
-16.5293941631364 6.12873162694277 714.678964866249 83 70 97
-15.8702396720347 -3.00393825338963 728.932369540673 161 170 123
-18.1901282447387 8.12920888224889 712.263649487967 60 80 138
-16.6840164859437 4.77173362533816 717.229433603844 77 58 108
-18.5063347706935 5.42869795541495 717.361819621376 160 152 160
-17.0545173708694 3.21664785941883 718.818909941694 103 89 108
-16.0279053696169 0.628010765857226 718.346993295615 74 69 119
-16.3974847501657 -0.932894835538917 719.938039239773 54 76 126
-18.0620073879442 1.09913016353423 717.513998059085 173 171 139
-18.8793950914124 3.87453489220638 718.951481894644 198 200 150
-19.463317641332 2.12870706112133 719.577332520159 189 193 105
-18.4333272385781 -0.458404168768112 719.104352167798 183 187 119
-18.3859934163058 -1.65894003456904 722.630735409815 176 185 118
-16.343291586222 -2.13864737585519 723.4647424464 56 74 98
-5.51536586288859 -11.4816814022171 761.363913992283 106 124 116
-11.6926432696773 -11.8672189256462 750.943231748588 140 76 76
-16.4204432007147 -6.0167327843663 733.106867644396 147 90 81
-14.524376426411 -7.9496072222302 736.518584532077 156 91 61
-16.2496466410815 -4.59422665138192 730.533948735191 173 174 128
-14.0639152702109 -8.89541717119182 742.012492846022 169 72 75
-14.4530472890869 -10.52335676764 743.627052668072 158 70 74
-17.013374373424 -7.78949484566444 733.742373749407 156 74 84
-16.5632534990653 -8.72334558192307 739.234578427852 161 72 80
-19.0472351131606 -8.55681020891916 736.455548397174 149 69 80
-16.9524880566101 -10.3430167765114 740.846690872729 149 67 78
-4.85005291211081 58.378993617854 714.99475520886 141 106 187
-6.56782613311157 55.3084078475712 710.925157568652 221 191 190
-7.60643550345503 53.0292488478708 709.674057767087 198 190 198
-9.08744720859988 50.2534871753002 706.532840975491 95 124 199
-9.89142653201429 53.180455323044 707.922709032276 162 208 201
-8.8595739646735 55.4565625954 709.175936246404 205 217 208
-7.1562358540551 58.5268647464707 713.248219105428 146 136 208
-5.89181913806806 61.0938216864837 715.431768645313 137 109 181
-3.57631995732785 60.9480795825007 717.175991400765 141 106 187
-4.17373964470275 64.2081980324486 719.488251628798 215 135 168
-1.84380535358028 64.0627395476776 721.229789165434 200 131 172
0.725860043865936 64.178108850469 723.909311123952 163 129 166
0.807910479512998 68.2734446466813 729.026954533904 206 191 206
-10.7023677357688 56.120908547163 709.30980974728 143 211 201
-8.19708057563543 61.2358729796235 713.68680214819 124 124 194
-9.23200392847144 58.9334346380159 712.441980771859 91 121 192
-1.77189012243724 68.1534977528733 726.35062369423 223 156 179
-6.27162113688098 64.617252412914 718.685256320298 227 136 162
-11.8846206870126 33.0526723898636 703.694826967051 112 156 198
-14.2765289499684 31.9723609099272 704.44793101411 48 118 179
-12.8972077325577 35.6746667100766 704.154268885626 103 99 179
-13.8430531987626 27.6274985587869 704.606625718697 42 116 173
-13.264044443092 29.358634991574 703.986041718362 77 154 186
-12.0960763051094 37.6482846438219 704.480312986615 116 96 182
-14.6401923363388 25.6743918588164 704.273745386221 38 108 175
-15.0010707101039 24.1652256932129 705.847793719367 41 96 176
-11.948496558195 43.7647027343375 703.688611460415 121 106 189
-13.3318100654778 40.0418857004132 703.989109820386 118 101 184
-14.349126327409 37.8263894266711 702.715187976375 117 100 183
-13.9155480375346 33.473258673671 702.876330058135 82 110 181
-14.9289540487878 36.0928044275009 703.336649747574 66 109 189
-12.7503444126827 41.7803678323493 703.365892507461 123 106 189
-11.3662119396917 45.5056334326566 703.064516376626 124 111 196
-10.3398870549706 47.7480639366118 704.328782741141 101 113 193
-12.3842254728293 48.1542783638705 703.516988034522 58 128 203
-11.3605625625701 50.4058999723964 704.778992957283 121 172 235
-16.1590882214452 20.7029528276387 707.088961720038 54 84 169
-15.5800794657745 22.4340892604258 706.468377719702 51 91 175
-15.2907744264044 29.7831957054366 703.165603332302 46 116 179
-15.8689642163669 28.0545078390326 703.785309561774 36 109 180
-16.304077898989 32.3944730574068 703.628370398913 50 113 185
-16.6627249524416 26.1029270027343 703.451365523016 54 122 192
-13.1879997189063 51.0647097078947 704.911750845651 91 160 216
-11.7291014315232 53.8429558693855 708.056210662316 140 210 201
-13.9860781730509 44.1739688889405 702.874689341233 71 120 201
-13.6232542518633 45.6632269817308 701.306227597875 69 128 208
-14.2065437575791 48.8112426939473 703.649374052054 49 125 202
-15.1490094786412 40.6970046250684 704.121123967083 91 105 185
-4.11370008814882 68.2977499157213 724.611585440992 222 134 152
-8.36438375747269 65.024461387958 717.881889140963 230 140 168
-12.761960229718 56.5243907888266 708.50157803034 136 208 199
-13.3507965738866 54.7638715594434 709.132695281034 137 209 200
-10.2736676157601 61.6399943047858 712.881441585484 81 135 196
-11.3026531313016 59.3381591241397 711.635370567453 129 193 221
4.32431701165922 69.4557239833781 735.453571331835 211 205 213
-17.1678060152614 18.5474643915488 705.795594887843 62 78 164
-18.2627256221794 13.9832373989928 710.530906450233 29 80 161
-18.1093310761136 15.3022646603921 707.991982763051 37 84 165
-17.5311412861512 17.0309525267961 707.37227653358 60 76 160
-18.8425533435582 12.2496523998227 711.152368221431 31 81 160
-18.5582747712087 6.58973721733841 713.848045136055 70 62 126
-19.422381064937 10.5160674006527 711.773829992629 34 80 157
-20.7452586422583 5.70048734431711 715.566210472566 66 93 108
-20.9117566396548 4.34228302078967 718.11917849356 179 190 115
-20.4220902359635 8.38751319477589 710.470807680939 33 77 153
-20.7911582668103 6.8538613653422 712.053633722718 35 77 151
-17.2400957766959 24.3766877027132 704.070193981624 104 110 177
-17.8174666009503 22.6504484026922 704.689022440233 99 101 172
-18.3948374252046 20.9242091026711 705.307850898841 76 98 176
-16.1576438896218 33.6583896139198 701.107136158189 50 109 189
-17.5270349798659 29.9771982085067 701.392712413485 84 155 204
-18.1035868384121 28.2534074748686 702.01066310123 116 194 203
-16.9555814934315 36.5090967395038 702.518658738686 61 116 195
-16.1612068689861 38.4796629459047 702.846830252236 100 114 194
-14.7845476260372 42.1911598506246 702.550906681999 81 114 195
-20.4235763748032 -1.18107809870443 721.796356502395 188 194 88
-20.0472401912516 0.382879230036195 720.203183145674 187 193 88
-18.9315907667429 -4.63223796166811 726.792624756842 149 150 116
-18.3435733882825 -2.87416729866794 726.162385277011 122 130 95
-20.5947830891112 -2.57051062424952 724.359485902912 184 188 98
-19.1042303351298 -6.04310442369886 729.36240445343 128 94 101
-21.288195361875 2.78659409390889 719.709904473109 197 204 92
-21.8721179117946 1.04076626282372 720.335755098624 197 203 81
-8.2663772100712 -12.7852734777859 761.189342188409 97 108 101
-11.6648607420908 -13.2033845677606 754.513585656734 120 97 93
-14.4247534117983 -11.8322686377919 747.189186673839 111 58 81
-21.1521535754686 -5.55328327513138 728.526321910509 184 181 115
-21.1811625361553 -4.32368415448366 724.987969841016 182 182 101
-19.4870157056779 -7.63491868536337 730.965047354229 114 64 80
-22.4560404617143 -0.705061568261414 720.961605724139 195 201 79
-22.6315470819004 -2.09020012200187 723.524229224628 188 197 78
-23.2171075632364 -3.84092508585304 724.151835391869 182 189 77
-23.3975279776715 -5.24075503789169 726.719725517539 133 120 107
-21.5366794161018 -7.14172626770204 730.128272975863 135 120 105
-21.5158601124968 -8.39581105217985 733.675402753989 82 51 93
-21.905299747379 -9.99894544304858 735.282620444522 80 48 95
-19.2313402014618 -10.001956600312 739.037616885847 142 64 77
-16.9294155895765 -11.6418148393821 744.40674937216 88 51 90
-19.2143081103915 -11.2930894222842 742.596477649805 70 51 101
-14.4013733287587 -13.155871906242 750.756587304785 108 70 90
-17.1174104290811 -13.1157408664096 746.998101469493 71 50 91
-13.7592250928455 -14.0229706826948 757.253249149078 104 106 106
-16.6926774916754 -14.1254971605415 752.5175170447 56 61 100
-4.39927906602327 -12.0665887157305 769.808954195443 149 158 153
-10.3792714997491 -13.6173860438472 763.936079753885 87 94 91
-15.8671030496057 -14.8486602523179 759.997167466546 57 56 88
-19.6093779665621 -12.9216321796938 744.212287113553 64 54 99
-19.3977604217856 -14.0783399633095 748.754962319702 51 58 106
-15.8032775862143 44.8290878135957 703.00670348793 56 125 204
-15.2218119334192 46.5675699455319 702.383486175005 51 124 205
-14.800276083805 51.9794860207265 705.988369493561 100 169 226
-15.8145202165996 49.7217250349745 704.726498599992 51 127 204
-15.1910309091886 55.4272948084957 709.266382846491 118 196 195
-16.5991876034075 42.845356072569 702.682734893277 61 120 200
-16.9662088918046 41.3521235497236 704.253138113779 78 106 185
-18.1860938435448 38.8925839888137 702.029531078793 64 98 176
-18.7651025992154 37.1614475560266 702.650115079128 59 119 197
-17.9620461238193 34.3088950250211 701.238220627796 53 115 193
-18.5394169480736 32.582655725 701.857049086405 51 115 185
-18.6257125093826 43.2533799827121 701.867191261561 51 125 202
-18.9944742678647 41.7635187289604 703.436902646618 56 118 194
-17.6204769993777 45.4842067382509 703.138717634626 45 122 203
-17.2525342066038 46.9716194256197 701.569884020433 50 124 202
-17.4276155472065 50.6340527814233 705.803995018765 47 121 199
-19.4688831001153 24.5844589013705 702.29185050221 202 113 129
-19.1061617175964 26.0819853960206 700.720941381681 119 193 190
-19.7530577901547 30.1675099007336 699.619077752997 101 174 212
-19.7664483580168 34.9594004361224 701.369305097403 54 116 194
-20.3438191822711 33.2331611361013 701.988133556012 54 119 193
-19.1845033327386 18.984871098288 704.969518005767 58 89 171
-19.5495790737132 17.471730502629 706.545507816059 54 85 167
-20.0446159929533 22.8631167341155 702.908923419092 211 108 129
-20.4097942725967 21.3582445403165 704.482465852211 210 104 132
-20.3376070498309 15.5372896310119 706.205419381258 40 77 159
-20.4944825360667 14.2250049078001 708.742959397548 38 71 152
-21.1960817786293 19.4204323996055 704.143069252856 109 101 169
-21.562897989689 17.9106630730404 705.718367227702 65 74 155
-21.0726723260292 12.4963170413961 709.36266562702 40 68 147
-21.6508621159917 10.767629174992 709.982371856492 36 66 143
-21.1133377189402 26.5049843236738 699.897445905969 116 191 180
-21.4777995715442 25.0108290981176 701.467663191053 220 125 140
-20.3279717172845 28.4486162998616 700.235272899015 109 190 185
-22.4364331949848 8.84053400252378 709.639650109101 38 70 147
-22.8072416959166 7.31025344218392 711.221784315435 28 76 153
-22.7682014130361 6.16209609567417 714.734041100674 44 83 128
-23.1439237082168 4.61712413703623 716.321441932188 114 131 85
-23.521283934814 3.06725504563221 717.910598305428 194 200 102
-24.3068550138071 1.14015987316401 717.567876558038 195 204 81
-23.2925535653274 12.7392908721263 707.572219290938 76 60 141
-23.663464604928 11.2172787136461 709.1519061201 73 61 142
-22.2615276417835 23.0720942546958 701.128080656279 216 108 126
-23.2025413529337 19.8541482955015 703.316248629109 122 101 163
-22.6276274258038 21.5730418963736 702.70005348309 215 104 128
-22.5556452803754 15.7686237907885 704.418112257793 77 64 149
-23.5710980340784 18.3477502380302 704.890854768509 87 76 157
-22.9232804571432 14.2564058978404 705.994288003502 75 62 145
-24.7225638197543 14.9050659035201 706.125000602273 82 63 145
-24.1468309269164 16.6264080707751 705.507927685391 85 66 149
-24.4456572824197 9.29170940485022 708.808120666428 56 62 141
-25.2982967125923 13.1837237362651 706.742073519155 84 63 145
-24.8182062534366 7.76480011360411 710.389563037317 39 71 148
-24.9892092340486 6.42742656560083 712.937130403939 37 87 146
-25.3658530336062 4.88827444243961 714.522961629144 61 119 118
-25.945680754985 3.15468944326958 715.144423400342 109 159 124
-25.2326434413873 -4.57917719426099 726.85304121216 142 126 127
-23.7829753226816 -6.82337819498551 728.320106976584 71 47 81
-23.7681963950398 -8.069797738565 731.866039019236 80 52 96
-25.8740296054303 11.46238156901 707.359146436037 78 60 139
-26.8240519393702 8.21750137960268 709.556969888363 71 85 154
-26.4497624982683 9.74103940175502 707.976219352919 65 58 130
-26.9993548258605 6.88442180340397 712.104031354957 89 147 172
-27.5775446158229 5.15573393699995 712.723737584429 78 150 140
-24.6858531718206 -0.414606351005972 719.158788473005 194 203 79
-26.3247814516672 1.60819162095939 716.732887938138 171 197 103
-26.7055200797657 0.0567966658831836 718.323108017659 166 190 94
-24.8648407321768 -1.79300236655894 721.720028302603 189 197 78
-25.0471041553657 -3.18119264764393 724.284779215655 183 188 80
-26.6897184527198 -1.13511533377138 721.852600255554 163 169 113
-28.9076554882371 -0.843453794593103 720.047283721022 101 139 114
-27.0753708750672 -2.70120168714567 723.448086960255 111 108 80
-28.7200681161244 0.526354277350691 717.487055691478 97 152 105
-27.265210066967 -4.09489226195812 726.015843056732 67 55 78
-12.5056793954323 -14.4556020645974 766.687072144485 64 69 75
-18.7887823125151 -14.941712006382 755.256488701598 51 55 99
-24.1585575342988 -9.6671122939569 733.471687103461 99 59 101
-21.6908164944447 -11.1127853536929 739.811995058529 77 48 95
-23.9526740931209 -10.7723642609921 738.000049917414 116 62 95
-25.6206502221904 -6.16087764864407 728.453608606623 73 48 95
-21.8849542485812 -12.5707777379622 742.399702043218 59 50 100
-21.6819365155611 -13.7188975779688 746.941365449312 46 60 111
-26.01029493441 -7.74747523579323 730.055931542813 78 48 100
-26.2040238775132 -9.16994544624035 732.632971247951 103 57 93
-26.0075592137999 -10.2690580360495 737.161200032711 136 65 78
-24.1502927874275 -12.2236141070739 740.586373231212 88 56 103
-26.0135620448683 -11.5518865336246 740.72173421543 144 64 75
-28.0493770844017 -8.50467679176653 732.767030684244 76 46 97
-27.8631501638611 -9.60009857073253 737.296003210676 94 53 87
-28.0701876356322 -11.0452090395882 739.882192495282 145 66 73
-23.9558748661639 -13.3631460034713 745.12702483725 54 61 110
-10.6687236906633 65.1606928456211 716.138492250148 176 134 187
-12.1292585658213 62.3089537701027 713.016244763448 83 141 195
-13.1531252097764 60.005273184035 711.769801874583 132 203 213
-14.60219456502 57.1878140378788 708.635265595797 136 211 204
-16.6302726759343 52.6392184589356 706.121313317347 58 130 197
-17.4529870156093 55.5701969592719 707.51336069292 120 197 200
-16.865788602857 57.325819055889 706.883998983952 135 214 209
-18.8803531077659 52.7833269316347 704.365791880377 57 132 205
-15.2160961052268 60.4072295620263 710.962633863924 131 209 206
-14.1981672985663 62.7103069871326 712.210326394489 84 156 191
-12.5345523838973 65.8333431217811 716.274039169784 119 128 191
-11.2926592403469 68.4358581581535 718.451042226051 190 156 183
-8.76660679005352 68.5751818088879 721.131277709501 196 133 163
-6.4452723106875 68.4383112677262 722.871803446082 222 135 157
-19.496403929091 55.9705915510538 706.70313559261 149 197 196
-18.7009040665727 57.9873968995197 707.017314678574 146 215 209
-15.8404404659437 63.6468727007366 713.285851119378 89 162 191
-17.0640087479085 61.0734209192109 711.096879235635 132 213 208
-14.4003810771313 66.5059933979412 716.40958608942 71 133 183
-17.6960314160049 64.3158321660535 713.420654297343 101 176 187
-12.9537699626535 69.3847026262098 719.526298892557 161 206 212
-20.7840517364797 37.5749717598971 701.831566263986 52 114 192
-20.2058619465172 39.3036596263012 701.211860034515 57 118 192
-22.1246956441024 29.0963536028305 700.365799562369 111 192 187
-21.7794596579865 35.3735278009543 700.549506640562 55 117 195
-21.5497817169725 30.8152472037025 699.74960441635 82 153 202
-22.5638016165966 33.4158075874299 700.215696630996 53 118 193
-23.274523498362 25.6585664010865 701.598189854406 133 170 164
-21.2261272994418 41.9284220546465 701.671859759344 51 122 201
-20.6471185437712 43.6595584874335 701.051275759009 44 121 202
-19.067174183974 47.6258156475641 701.701712231711 47 123 201
-19.4376764125412 46.1393256629062 703.270731781323 50 123 204
-22.4281987392984 39.4706919766209 699.444503799261 54 120 199
-23.0047505978446 37.7469012429828 700.062454487006 60 124 202
-23.7873520863697 35.7858097603647 699.729336312885 52 118 197
-19.6734986118285 50.7821356841776 704.046532104651 49 124 207
-21.6700458711578 46.2935120203495 701.509014042084 48 125 209
-21.2986221382138 47.7741821695305 699.941564098782 46 120 205
-21.4958168965782 51.4391000142544 704.178918122183 53 127 204
-20.7052308283089 53.4412139644223 704.498363833328 63 129 197
-24.4243513526217 22.2207791993425 702.830580146443 211 109 136
-24.9992652797515 20.5018855984704 703.446775292462 122 87 158
-24.127571739568 29.5150585586791 699.542809986684 111 192 188
-23.1153948486976 26.9261378459054 699.073578559421 117 190 186
-23.5534767781463 31.2315035931681 698.927492611529 64 132 192
-24.7016667009896 27.7986135241901 700.15812736184 114 188 185
-24.0556921328082 23.7189088549539 701.258421384215 214 113 136
-24.8667331879486 26.5304389184097 702.683988298524 138 181 175
-24.5683156434785 33.8296154105124 699.394462597038 45 115 192
-25.1432295706084 32.1107218096404 700.010657743057 62 128 196
-26.0181989736246 23.0877545838997 703.918134132288 167 93 138
-25.4424660807866 24.8090967511547 703.301061215406 191 113 138
-21.5347019709864 56.3691407374141 705.892538621463 188 211 206
-22.6634057065735 44.0638915867333 700.234988385621 51 126 207
-23.241595496536 42.3352037203293 700.854694615093 96 157 219
-22.9022986913561 48.6803705387532 701.019194546747 44 123 206
-23.318135181328 52.0960643443311 704.311304139716 109 163 224
-22.7350315971166 53.8394436090332 703.686331285064 147 182 221
-24.0249134121006 40.3633952694684 700.524901589007 72 123 198
-14.6199995565465 70.3353924996876 720.601927429898 149 208 205
-16.2662097703653 67.1786436741013 716.545133009057 129 198 216
-20.5360195302885 58.6489747431504 707.150630373196 157 213 205
-19.1193013359793 61.4726091890699 710.289153418722 136 213 208
-19.5516223660662 64.9847916313705 713.555457475307 119 199 199
-26.1490931340112 17.0640983967264 704.6791655845 92 67 147
-25.5741792068814 18.7829919975983 704.062970438481 94 69 151
-27.0975800752034 13.8323837419448 706.872786117927 80 62 141
-26.724007061141 15.3452047958543 705.295360730518 84 64 143
-27.6733129680414 12.1110415746898 707.489859034809 77 59 138
-27.9567478511737 3.61750451654953 714.309754745052 84 153 129
-28.2490458608794 10.3896994074347 708.106931951691 71 61 132
-29.3845062858135 5.80716205081202 712.855007989454 73 153 132
-29.0043815460858 7.33957163578566 711.27056043514 82 151 147
-29.962696075776 4.07847418440792 713.474714218926 72 153 128
-28.5357566068444 1.88636808376245 714.930338745387 96 154 104
-28.8247787537174 8.66835724017972 708.724004868572 93 106 154
-30.6132781658418 8.18727803102814 712.366572165007 77 144 148
-26.6660165505597 27.1790989240895 702.814700897295 113 185 178
-27.2417494433977 25.4577567568344 703.431773814177 93 109 171
-26.7959892065695 21.1496229014394 703.577301955816 106 79 155
-27.3709031336993 19.4307293005673 704.193497101834 96 71 151
-27.7453976521385 17.9237280821346 705.769352882934 96 73 153
-25.5866354489808 36.4344697660444 699.860048911657 56 118 196
-26.4958311920144 28.4454281244483 700.288468089775 107 187 186
-25.7181434977382 30.3918282087684 700.626852889076 106 191 187
-26.9399534974263 32.7584591126094 700.14118440641 63 129 197
-25.0109025561428 38.1558119332994 699.242975994775 73 121 198
-29.0985187231824 -2.22305613206893 722.611022834019 93 121 112
-29.0977660948895 -3.43423712103822 726.148972815936 85 101 110
-27.8505292697122 -7.08405198674097 730.18961910827 69 44 100
-27.851589514011 -5.84806579219226 726.644326994837 70 55 92
-29.6841455419336 -5.18741065127236 726.777456754041 89 78 93
-30.7294972808967 0.994066483396693 716.650631494461 73 148 125
-30.9213845588876 -0.3714476167425 719.210353623977 67 140 117
-31.1165476997111 -1.74675598241382 721.773586836946 68 138 118
-21.4854705082064 -14.8866059490394 751.490051022311 35 57 107
-29.4975098103597 -6.24731025641613 731.295762000922 99 55 93
-31.1226544130897 -2.95272029686777 725.311216854254 89 129 119
-31.5167015698561 -4.52675551035246 726.910586513245 98 85 82
-32.9526510052191 -2.29298785865862 725.44416067804 83 131 113
-31.5309979403163 -5.75720548863652 730.456994239185 143 69 87
-29.8947302912901 -7.83940813729272 732.901090120537 83 52 101
-29.9103569771605 -9.09956045392211 736.45659551972 74 46 97
-30.3124912523399 -10.7063497330968 738.067190264515 88 48 90
-25.8293818667774 -12.6877276191789 745.26312956314 100 61 99
-24.1616832175521 -14.8388815133832 747.722125859681 35 56 104
-28.087963602621 -12.337512260946 743.447673338571 147 65 75
-26.040309089752 -14.1616177236692 747.858602456407 40 57 104
-17.7873574329997 -15.5264397072092 763.722132884423 55 46 77
-23.3906758928474 -15.5451164146161 755.206558696166 37 54 101
-20.8984007393604 -15.7640303069112 757.999715183621 41 49 94
-25.6741355595835 -15.1749570610325 753.38963667774 42 58 101
4.19944699241461 -7.94690374994093 771.267047660296 156 163 160
-1.39553301257212 -10.5919149511346 770.945932286693 105 114 109
1.17543052995532 -9.43073269657015 770.136451806733 149 158 151
-6.53746009762693 -12.9142794602635 772.564893246614 61 70 65
-14.4419042819563 -15.1468306733267 770.418925700077 37 38 42
-22.4359347459802 -16.1322208367518 763.681322241719 51 49 67
-24.9308718739291 -15.9041158398861 760.88590431251 63 53 76
-19.5301234475318 -16.0608866383855 768.431336521553 31 38 37
-28.1106533638588 -13.644506880602 747.01842080704 92 63 96
-27.5655586107493 -14.4930797577647 753.527042951555 51 59 103
-24.5110941160846 49.5884043133974 702.097196865547 85 136 191
-23.6871519996683 46.6953965532663 700.69360443956 44 123 207
-25.0485571665267 42.9866318341414 700.985965020118 132 177 226
-24.6745739977894 44.4663792806118 699.418329141397 48 123 204
-25.2942069543119 47.6000590588168 701.772298593806 43 122 205
-24.9389088193144 53.0111601989123 705.389358364743 184 214 205
-23.5678811412955 56.7658445183528 705.081569779481 131 147 157
-22.3711349940041 59.3105525867811 707.283946067817 163 208 204
-20.9646545428678 62.1378778435437 710.423212855015 136 213 206
-25.8293156462981 41.0139006805697 700.655986058614 109 125 187
-26.6084361946532 39.0460666597639 700.324251555385 130 122 186
-27.6337178804955 41.664406091671 700.787070528222 169 136 159
-26.6546906167934 43.8854745042151 702.066228780673 130 176 200
-27.3859188115919 37.0831297717241 699.990761510428 130 120 183
-26.5677107987741 34.2415778281734 698.572856692245 48 115 193
-27.7159007216174 30.8086877591954 699.803491442555 107 192 188
-26.2773290465548 45.3667478143575 700.497529195671 46 123 204
-28.0842907165455 46.0181759281696 700.628799600696 48 124 202
-26.9063807805419 48.5065669697887 702.851364618888 53 126 207
-26.1250084123997 50.4982834934632 703.175571055184 154 184 195
-24.5573498818663 54.49640793911 703.818717302597 190 217 203
-26.7637865398574 53.6690472316998 705.521930317693 166 187 181
-28.5927131333873 21.7973602044083 703.707828619169 92 80 161
-29.2396092059456 25.8828847091213 702.605964990485 63 106 176
-28.0177992062575 23.5162538052804 703.09163347315 81 85 162
-28.6646952788158 27.6017783099934 701.989769844466 103 181 178
-28.2899956830391 29.0922427247064 700.418808817711 106 190 189
-29.5100652126421 31.4555023594536 699.933832170491 113 194 190
-28.1617634971143 35.1250900164503 699.655515923745 50 115 189
-28.7366774242442 33.4061964155783 700.271711069764 60 124 192
-28.4102789930575 39.6956493681544 700.455150089574 203 125 160
-29.185202174203 37.7317897774039 700.121474109199 163 119 169
-28.520730987959 15.9929420988233 705.425887393872 86 66 145
-28.9689481219116 20.2937302550693 705.282992564823 93 77 156
-28.8968634378145 14.4810437476245 707.003498716698 80 61 143
-29.5446810147496 18.5723880878143 705.900065481705 101 81 159
-30.5863755287257 22.2264625867504 702.880078318333 83 81 161
-30.3174549147768 16.6406794017922 705.556414057225 94 70 148
-30.9643509873351 20.7262039065052 704.454550428541 91 79 158
-29.8685213537846 12.350608213789 705.695983738239 74 60 141
-30.8923688419066 14.9217858009202 706.172609203244 73 61 142
-31.1486638402566 19.434785881355 706.990810586393 99 75 153
-30.2454727693484 10.8362612962073 707.274472831928 65 58 130
-30.6240621163285 9.31701724585943 708.854717467344 51 69 121
-30.0122805673041 23.9429076212394 702.264760943177 61 90 167
-30.8550910653373 27.7957089679889 700.208637333784 107 185 182
-30.4794699651837 29.2803535472253 698.639245913337 108 188 187
-31.8476125861016 11.6870194187942 708.368357149233 43 75 152
-32.229580334583 10.1662495047742 709.94966549093 32 80 149
-31.1914679558043 6.45859016462413 712.986278394479 76 153 134
-32.6131860144808 8.64058245798824 711.532729374354 59 118 158
-31.7696577457668 4.72990229822003 713.605984623951 72 151 126
-30.3452777126282 2.53871890028532 715.06179508583 69 148 123
-32.5415778224738 1.64734000263036 716.782273770321 65 144 120
-32.3478475357292 3.00121443181601 714.225690853423 72 147 124
-32.738583972051 0.283671307912698 719.342367770674 68 141 120
-32.6890927687246 15.5695231038892 706.303135866597 64 62 142
-31.4672827690365 13.2028922000482 706.788804349263 68 64 144
-32.0016430567643 24.367716031777 701.437516542368 54 93 169
-31.6243840251944 25.8572577437792 699.866369580194 66 119 182
-32.5749190524778 22.6537195636709 702.05195614666 77 77 158
-32.1141788415948 17.2884167047612 705.686940720579 89 67 145
-32.9546349811721 21.1568321525196 703.625736421424 85 73 154
-33.3359888412828 19.6550476086022 705.201272237913 94 74 152
-33.6468959487127 12.3356794244739 708.499069748005 34 75 151
-34.4858166955424 16.2172604068581 706.433662529951 45 71 149
-33.4568503358341 13.6442374143053 705.95666519411 53 73 151
-34.1028249040154 17.7239420835415 704.856371171735 81 65 143
-32.9984296257949 7.1100182784362 713.117548799504 73 148 135
-34.0314231329874 10.8158322131647 710.080564025119 24 75 150
-35.0607306226723 14.4983668059861 707.04985767597 36 75 151
-34.4175882486782 9.29108786908955 711.663813843961 35 89 148
-33.5766194157574 5.3813304120321 713.737255028976 72 149 132
-34.8053912957855 7.76144639224825 713.248819204529 73 144 131
-33.9643199241959 3.84342053333106 715.324707766716 71 148 127
-35.1948322743091 6.22690778264101 714.835580106823 75 149 131
-34.3536583640508 2.30061352186399 716.913916046182 68 145 126
-33.3492575977787 -3.86610036943257 727.043716272448 100 96 86
-32.7482741642683 -0.907282066493849 722.876166739919 64 137 116
-34.5954341786571 -1.45227169827854 726.548362093548 80 130 115
-33.5593671986865 -5.26894612627839 729.617854606613 144 70 71
-31.9299588913317 -7.34593210041928 732.061630523355 124 62 98
-31.7633884914285 -8.43152369131597 736.591212762267 84 49 98
-35.4461793113238 12.9843394301537 708.629782346776 31 75 152
-35.8332659313916 11.4654149215552 710.211462559309 27 76 151
-36.4098177899378 9.74162418791721 710.829413247054 27 76 148
-36.7993613071301 8.21535398016979 712.413726772177 66 133 129
-35.9617708757105 4.30407065944013 714.488231663473 76 149 126
-36.1657389056278 2.9538870410976 717.045558322043 66 140 122
-36.8181640044473 7.07433055867145 715.934277055507 77 150 127
-34.3669320351069 1.12467108750488 720.443883967365 70 113 119
-36.3729827983778 1.59390915722312 719.606396064067 48 77 98
-34.3851195004119 -0.0659627451523193 723.979118513727 65 128 112
-36.2125566567481 0.592846990346004 724.111876402095 74 104 119
-37.6087165587461 3.98751021381437 719.115192897838 66 138 121
-38.1901822115412 2.24902808187832 719.738410210763 44 68 96
-35.1818136257012 -3.20544522851267 727.176846031652 92 110 102
-36.6126441894777 -0.973522982240411 725.710048325612 75 124 116
-37.3979917258261 5.34074555950141 716.555738826705 71 147 122
-35.5826175854704 -4.78253216934191 728.778343103205 130 70 78
-33.960068619787 -6.85430146896738 731.221799055337 155 66 74
-27.0302914461379 -15.3710354315235 760.046198346431 94 60 77
-32.1680822024011 -10.0373902677799 738.20199344248 77 48 95
-30.14632966347 -11.8274634978158 742.607439782978 143 65 75
-32.3869953487613 -11.4837070585584 740.790682010484 89 50 89
-30.3650377324929 -13.2903170923138 745.201023105326 113 65 83
-29.8336616627263 -14.1284566204459 751.709005320623 88 56 83
-33.8029169973484 -7.93375368263797 735.751247265057 140 64 77
-33.8379951265187 -9.2006126149178 739.312257131064 72 47 94
-34.0628461101735 -10.6475325666577 741.902195340767 74 48 92
-32.4225848276338 -12.7778197628005 744.35991177887 98 60 85
-34.4750130511883 -12.2671678387089 743.518428581578 73 47 81
-35.9850594766559 -6.36451624293709 730.381595716483 155 68 76
-35.6533890758233 -7.2666396227426 735.885678572186 148 66 76
-35.8792641025236 -8.69947133714597 738.471599798409 80 56 82
-35.9261153676143 -9.97580499320841 742.037556324986 129 115 106
-36.5223224031564 -11.7583613200387 742.67657351345 133 121 111
-34.522375665981 -13.5707552667337 747.092605010534 66 49 82
-31.9057464069181 -13.6079745082848 750.86813183581 82 58 84
-18.1320384635993 67.8512939502613 716.680679928693 138 211 208
-16.4986254287465 71.0126562894016 720.738404026624 150 206 198
-21.6102933556384 65.3824540375573 712.748795364676 131 205 204
-26.3796681666162 55.1533722691868 703.951103320129 173 189 190
-25.3953182976317 57.4246542538512 705.214327667849 186 193 206
-24.4076925658146 59.7057305040476 706.474040932117 170 186 202
-22.8100077497563 62.8031464980176 710.557272291309 134 203 207
-26.2402485937371 60.3663856449675 706.60717069132 148 136 155
-28.3263261988043 49.6690773806314 704.878412199444 65 132 207
-27.744041580301 51.4100080789505 704.254317115656 184 206 204
-28.201986451366 55.8103365992636 704.083489337661 210 131 146
-27.2227554539678 58.0834639893495 705.347085556217 233 188 178
-28.5886642604003 54.3269342644873 705.654502270643 144 123 163
-24.6553609566448 63.4684151524914 710.691331727602 120 173 185
-20.2017661620524 68.2501986009082 715.875639330596 136 209 205
-23.4633248699064 66.0504908001634 712.883412607223 126 196 197
-21.8636958500672 69.1965945025814 716.951773767966 142 212 203
-18.3772513009464 71.6899200791156 720.87488062335 159 198 194
-28.0728046216597 61.0270407858874 706.740300450524 254 232 198
-28.8546883395038 59.0080704902505 706.424313916607 255 194 183
-26.5007141635332 64.1336838069651 710.825391163895 201 201 173
-23.7295245433012 69.8692447787415 717.087320687602 148 210 198
-25.5143175520991 66.4453850982178 712.076192690338 139 201 199
-27.1693878984426 67.3865643253757 713.152647092317 202 226 172
-20.0537186380122 72.6443007634365 721.951252902363 161 192 187
-30.0154909389473 40.5886722027512 701.536983456437 210 124 150
-29.9584874239323 35.7728273194193 699.786042587099 55 111 186
-28.662480506508 44.2894880617656 701.248505830168 106 161 188
-29.6355699329156 42.069022810183 699.968097936018 189 167 185
-31.5001441291418 31.8695938017483 699.109912917717 111 184 195
-30.7301347422452 33.8187619942008 699.448855523271 64 122 188
-31.5602184296521 36.6591076158286 700.869259624853 73 111 179
-30.9844855368141 38.3804497830836 700.252186707971 186 120 156
-30.4694421764986 44.9409161755777 701.379776235193 60 127 191
-29.4981957588448 47.1730210981139 702.657044916726 45 116 195
-31.6323031137492 42.4717941232734 699.148753472978 136 189 210
-32.2080360065872 40.7504519560184 699.76582638986 194 126 144
-32.7837688994252 39.0291097887633 700.382899306742 198 119 143
-32.7184731886598 34.2294821674017 698.625628105943 138 151 178
-33.3595017922632 37.3077676215083 700.999972223624 159 114 144
-30.5356607352823 49.8149594136776 703.115021041445 108 156 200
-29.7594072387265 51.8085213427736 703.439599348577 184 175 206
-31.3835592782143 52.7220913336825 704.518717279885 145 118 156
-30.4135419809434 54.9848212972749 705.787074223593 189 129 176
-29.6349341259317 56.9939973273797 706.106571840963 231 134 149
-34.3665241077093 23.2996114612183 702.182110939178 78 79 160
-32.8409726146274 28.2137748403388 699.382776603865 106 171 165
-32.2685155846221 29.9253227420619 698.769214770437 110 188 187
-33.4851041740551 32.2818398386215 698.285621794107 126 184 185
-33.4134296446328 26.5022269386158 699.996338437294 88 135 190
-33.9858866746381 24.7906790368929 700.609900270723 58 88 165
-34.3184637242947 35.1123911947171 699.709536979142 169 159 174
-34.4426332520077 30.107897348316 696.988536253555 128 180 178
-34.9398001034228 21.5856149931123 702.79655054347 80 73 154
-35.3228944336186 20.0872017182887 704.371394524515 87 71 149
-30.2987952616193 60.2012418646866 708.446570555272 254 163 161
-31.6982140565268 47.3210321557937 700.891340410746 51 119 194
-32.2764038464892 45.5923442893897 701.511046640218 43 113 190
-32.1580723046851 50.7251581354926 704.194830808198 169 203 210
-32.429726605077 55.380885994715 704.973234227377 236 130 151
-31.4623712822679 57.6528070628781 706.239329729331 236 131 147
-33.4315864763603 43.1204541289531 699.27946607175 75 137 187
-33.8158073882703 41.6443974933259 700.847845692142 175 164 185
-22.1345030453463 73.0444476585435 721.147833816801 165 203 193
-25.3991325386956 70.8184087885471 718.164012931225 151 211 195
-29.7115968488671 61.9568639613038 707.817208846304 239 214 178
-28.1514846039984 65.0705690623185 711.902351465901 215 221 165
-28.6367348200341 68.6045768279285 715.171682395399 217 233 164
-36.4710843564619 16.6543116493107 705.602029274825 51 76 151
-36.8574545494902 15.1461041089551 707.180384339323 46 79 150
-36.0863520948498 18.1576220569002 704.025429752054 77 67 144
-37.0585568712498 13.8387883635838 709.724410405753 39 79 149
-37.6351087297959 12.1149976299457 710.342361093498 28 74 150
-38.0263927170732 10.5920986912921 711.925982783175 29 76 148
-38.6037635413275 8.8658593912711 712.544811241784 61 109 107
-38.6302445460243 7.72760407790508 716.065919331368 108 162 135
-39.2100722674031 5.99401907873505 716.687381102566 71 144 121
-40.0135033867463 11.0407896046983 711.091210315432 32 72 140
-39.0698967258326 13.1731064664926 712.40321796066 34 74 144
-40.2262763057576 9.71573073368452 713.642630419604 91 127 93
-35.2024752640711 27.1471961334524 700.126307294394 97 127 180
-34.6300182340658 28.8587440351754 699.512745460965 130 131 135
-35.5848531672274 25.6594998268717 701.697826127403 59 85 163
-36.1581291629409 23.9455033587657 702.312265731696 52 85 166
-36.7314051586544 22.2315068906597 702.926705335988 53 84 165
-34.7737452772562 39.4349328291982 699.56142743114 184 118 146
-35.1587851548742 37.956427627188 701.130684822395 169 114 137
-36.1126282153194 35.7592057949753 699.839877707078 154 132 142
-35.2741497934934 32.9268090334581 698.415590651207 130 182 181
-36.0365834116792 30.983141134733 698.073642862228 128 173 169
-36.6867231767411 34.0427607604863 700.455195082233 131 173 175
-37.1982046708137 -2.72424794609148 726.337654492853 80 102 118
-38.2229073258973 1.06637903186882 723.273882598769 77 105 116
-38.624735328712 -0.496619671623762 724.871362686841 70 108 116
-37.6007491006678 -4.29796361782689 727.938459728961 69 55 87
-37.8227343761648 -5.70201569659562 730.515097346523 120 59 82
-39.2528485129018 -3.45937648208054 729.044974492448 63 54 93
-39.0282012629431 -2.06451550788236 726.470598316639 51 63 92
-39.6079079803457 4.45153160901725 718.27802495915 68 134 122
-40.1885546674327 2.71549804346415 718.900364501211 57 81 107
-40.5888472774999 1.16566487459741 720.493641670385 77 107 122
-40.8112427076715 -0.205313596732054 723.060489779259 55 73 97
-29.499634216155 -15.1521574617655 757.248921063042 122 59 65
-37.5038611542981 -6.59952556284725 736.020109879315 139 63 76
-40.8581978550724 -1.40478306967324 726.603542140425 70 77 107
-39.6604092756737 -5.03951515025416 730.648598976563 88 54 91
-40.9100667967222 -2.61894394091254 730.151861126771 54 50 95
-41.3210059609954 -4.20060847275843 731.756549317167 54 47 97
-39.5331519170452 -6.10544636501237 735.179400640434 80 51 92
-37.7348550525848 -8.03051187182903 738.606402976374 108 90 88
-37.789384625055 -9.30407741975915 742.172917309204 164 159 110
-38.3855916605971 -11.0866337465894 742.811934497668 151 150 111
-36.3958826665945 -12.8953368824413 747.228709736424 63 48 80
-34.2098477488007 -14.5729862490305 752.629991252815 104 59 71
-26.1263288604596 -15.9727594068829 768.53447010903 68 45 51
-31.5836971736045 -14.6246132696676 756.408099484455 123 59 61
-28.6136902196976 -15.7391541162896 765.736046996394 95 52 56
-30.9015523309806 -15.3564323890418 763.91617170077 117 55 57
-33.3607598964936 -15.1329768282672 761.115703298537 113 56 61
-36.275994655698 -14.0519009759082 751.787868126303 88 71 83
-34.3546096621971 50.866426654985 702.430509973109 216 220 184
-33.5842940029358 52.8593854231195 702.75633792194 227 148 163
-33.1223568419988 48.4795681365812 702.920329468447 72 125 188
-33.8927750399288 46.4948777703065 702.592054142444 42 109 188
-35.123287390042 48.8783650196164 702.102926482552 125 140 146
-34.2520448898267 56.0378503247917 705.105620244909 234 130 142
-31.164303582739 63.158623279349 709.838453684914 164 130 139
-29.80737391605 66.0092997230933 712.979683638743 239 244 180
-35.0410983281284 44.0177709353545 700.360793538585 45 112 190
-35.8066027318094 42.0477719673778 700.027251587403 96 157 205
-35.7022961457126 47.1472285868294 702.723510482887 45 109 187
-36.6557290514829 44.9169331471775 701.442492876257 41 108 187
-36.7586027835007 39.8389104642115 698.739583684703 73 112 178
-37.2330998757372 43.1906938471564 702.061321334866 47 111 181
-37.1453831312039 38.3637765312951 700.308149240512 103 108 167
-36.8031822267454 28.0193881925252 701.213541315629 90 118 178
-36.4190638535041 29.503713230012 699.642714318065 143 129 138
-36.1666902037741 51.5197001742186 702.56215224897 235 233 181
-35.5868624823953 53.2532851733887 701.940690477772 221 129 131
-36.373936783807 50.296913852867 705.082076414516 143 152 141
-32.9106755715929 58.8420040072589 708.263527845141 233 140 156
-35.8881751425723 56.9584823956376 706.184790082444 251 154 157
-37.8779571500814 18.8035139544477 704.155584544572 83 75 143
-37.3046811543679 20.5175104225537 703.54114494028 73 72 148
-37.9497342181724 24.5913952563131 702.442420524213 42 85 165
-37.3764582224589 26.3053917244191 701.827980919921 60 89 166
-38.9831030224277 27.1769806225303 702.916464582855 43 86 166
-38.2081094729424 30.1486824248486 699.772683175165 141 128 133
-37.8230695953244 31.6271876268588 698.20342578391 133 172 166
-38.2952109854635 34.9259893295511 701.54053953255 116 156 176
-38.7805665029478 28.4371345231256 700.386245008594 69 105 173
-39.2398403457814 32.7391649238319 700.24497169208 146 170 170
-37.9067927063441 36.4060203952335 699.970218435013 100 110 159
-38.367193130892 40.7304074351361 699.822480757847 46 104 182
-38.2652488474866 17.3011262495689 705.732370002761 151 87 123
-38.0986824785078 16.4213220024565 710.200581876957 155 85 112
-39.7413392734039 25.2372871538604 702.572575316731 46 84 162
-39.4853183770897 19.664385884316 705.247393355541 127 83 135
-39.0962862095994 21.1634023201011 703.671299732798 92 83 151
-40.3146152691174 23.5232906857545 703.187014921023 69 83 153
-38.7088919735255 22.6575216231201 702.096961651781 42 80 158
-39.8759884759962 18.160472315765 706.825242520011 184 84 101
-38.6760533027621 14.6950827024355 710.819410335565 119 79 122
-40.0856906095122 16.8617445140029 709.368256786386 183 86 101
-40.5696121223862 29.0821037179623 700.516213865694 46 89 161
-39.9971550923809 30.7936516196852 699.902652032265 145 137 144
-40.2986686058607 15.5532224467087 711.914782136213 158 84 109
-41.6351971854682 11.8931095134947 712.188151722389 38 71 135
-40.6958904304326 14.0297203470936 713.49965346759 41 74 138
-40.4423250876013 8.38087759713872 716.197561607229 121 161 127
-42.2125680097225 10.1668702134737 712.806980180998 146 176 125
-40.6616497322779 7.03623019506088 718.756003878306 75 144 121
-41.243115385073 5.29774806312483 719.379221191231 47 109 107
-41.8245810378681 3.55926593118878 720.002438504156 56 83 106
-42.4060466906633 1.82078379925261 720.625655817081 73 106 119
-41.2794828681144 20.3112004845742 705.377734083477 194 82 100
-41.4918469760922 19.0216637873826 707.918486908097 198 80 93
-40.7772675134524 27.8237952227884 703.046805310791 36 86 165
-41.3513624748741 26.1073501882994 703.662122685946 49 81 158
-40.8878912648309 21.8092942176484 703.801454525315 189 92 117
-42.106220324349 24.1691825833019 703.317169713541 106 88 138
-42.4995523977174 22.6744601193214 704.892757436257 197 87 105
-43.0736473591391 20.9580150848323 705.508074811412 198 81 98
-41.7074869469027 17.7223328246591 710.462750816171 194 83 97
-42.1056302758514 16.2046505605208 712.046052541239 173 81 100
-43.6893762063207 18.1609099307838 709.630053854764 198 80 93
-43.2911303387033 19.6703237930624 708.049199506869 204 83 98
-42.6114277657107 8.63847098109247 714.393607054101 128 167 110
-42.5054115362164 14.6820711636165 713.631109808033 51 76 130
-43.2620098557763 12.7472748277127 713.285465000182 66 90 140
-44.01697024392 10.817375624575 712.938064650605 177 192 99
-42.8342333505572 7.30056611720235 716.950665654288 78 148 120
-44.4183894357013 9.28989909490454 714.524877459126 139 173 106
-43.414061071936 5.5669811180322 717.572127425486 56 122 110
-44.6463138921342 7.95383963643596 717.082307930148 80 152 115
-42.9230794403333 -2.1362207948192 729.311605881691 55 53 91
-42.6335609924213 0.451650733344678 723.192875796792 59 86 101
-42.8643511570121 -0.927276598095233 725.763606859955 83 92 122
-43.3357590746915 -3.71451405757122 730.915602236642 59 54 103
-41.733583056685 -5.78717013737032 733.362993049289 58 54 100
-39.9464454397742 -7.70272499786705 736.789169520592 77 56 86
-39.8298346353518 -8.80048757560439 741.331382205686 137 126 113
-45.068971525767 13.3987029415248 713.416735405207 172 180 135
-44.4907817358045 15.1273908079289 712.797029175735 112 107 110
-45.9955836405053 11.2657469962317 712.101856605745 189 198 89
-46.225351105692 9.94132720871664 714.656147864151 166 183 80
-43.6417804510315 4.21438485584397 720.134452650853 62 112 111
-44.2232461038266 2.47590272390781 720.757669963778 66 110 110
-45.0518279124564 6.41412027485055 718.673509592986 70 138 118
-45.2854851288465 5.06092085170079 721.237084460051 71 130 118
-44.4558792771712 1.1086150634215 723.325261814324 60 87 102
-45.9344839540566 2.13861927036956 725.402394240313 60 82 98
-44.6917883133482 -0.268466862596881 725.896364748323 72 84 113
-47.0382221550901 6.87352815649948 717.835411977208 87 149 104
-47.2761792773584 5.52462270515437 720.398480944246 82 133 112
-45.6950939777095 3.50895865820033 722.832674977205 60 107 103
-47.6875285963064 3.97603178074766 721.993379625954 88 115 119
-44.7581949040491 -1.47464295118849 729.444921576313 52 57 98
-46.8035408956545 8.2126393423126 715.275854093622 111 165 104
-43.5763768277803 -5.1228241856073 733.496866550165 63 56 95
-41.9723578010199 -7.20711993635994 735.947396575429 68 54 97
-35.4465633240283 -14.6020613670754 760.274189884506 105 59 67
-40.2488609180379 -10.4149061731401 742.947295481886 88 78 93
-38.2693896672081 -12.2199184981489 747.364814462313 67 56 75
-38.3370226910089 -13.5326611082073 750.945373128956 69 68 80
-41.8651657740621 -8.29874313687117 740.489475231332 69 56 85
-41.9383278241242 -9.57656673406862 744.060616260123 62 55 86
-39.967353846382 -11.3812595173281 748.479570817667 80 66 84
-40.3929318547335 -13.0152666459279 750.102506260773 79 75 82
-41.8434202827888 -10.7049184303249 748.615861478974 64 58 84
-43.9931512906793 -6.71336028027447 735.105251759431 61 51 94
-45.1734339742004 -3.05201351122976 731.049103866681 78 64 96
-43.8953780411861 -7.79884410355942 739.647196386142 55 51 96
-43.9753994329195 -9.07145102624158 743.218017450323 47 56 97
-43.8899106690487 -10.1936633452717 747.773128639983 57 66 96
-45.8386686903603 -8.39972345279227 743.353378434542 48 50 94
-42.0993933069952 -12.1762881233577 751.218698193243 88 79 77
-24.0131289175461 73.7217114482575 721.284310413527 163 205 195
-31.7531399269076 61.3981040499659 710.469570935609 206 146 163
-33.4055482987891 62.3300921725532 711.548286779341 184 145 160
-34.7432315995155 59.5026591481788 708.396657604345 213 152 164
-32.6272480597837 64.3640734082374 711.860442265196 248 241 176
-37.6096705441753 52.6905149094582 704.590873248288 236 220 159
-37.1408740415669 48.3054809484046 704.755184759404 49 111 187
-37.2135739576763 54.1677778670084 703.019994344498 242 171 153
