ply
format ascii 1.0
element vertex 926
property float x
property float y
property float z
element face 0
property list uchar int vertex_indices
end_header
-48.7670165119802 129.610312877512 978.047268230001
-49.5747820484503 132.089705424964 978.279123441993
-50.0094689424492 134.767044059892 979.431653059739
-50.0736014612781 137.650076884008 981.505581630777
-49.7697038722384 140.746551999021 984.501633702644
-50.2119635681418 143.447134939082 985.656336963002
-50.2861931561764 146.36116017004 987.73316372419
-49.9949169036443 149.496375793608 990.732838533744
-49.7086891857148 152.647087620597 993.733962438373
-49.0603213169537 156.029320642476 997.658900454752
-49.1513793536648 158.99499988484 999.740557532856
-49.2458030801113 161.971009929485 1001.82318067434
-49.7082569144263 164.733577683232 1002.983680315
-49.8085705979096 167.727666631868 1005.06799406741
-49.1862868245971 171.189963371426 1009.00041907501
-48.9328745815868 174.441400520655 1012.01096209763
-49.7684070583732 177.006022186925 1012.25078733253
-50.2434822291955 179.807330449226 1013.41490971088
-50.3606243613552 182.853073409268 1015.5040537802
-50.8399066443467 185.667295174421 1016.66938373777
-51.6788048108684 188.242247642972 1016.91017503606
-52.1606113611613 191.064217509835 1018.07622954117
-52.6441007563218 193.891352777839 1019.24276707798
-52.4184554536278 197.228019045887 1022.26128012351
-50.4250219409 201.854009017467 1029.91118103592
-26.3170117114559 3.36629327040614 921.728106494998
-29.5939524933816 5.31921051814685 916.505705658124
-31.6085387122635 7.45013629692443 914.002462822771
-33.2014986543634 9.63781555214408 912.405364472079
-34.7910929067281 11.8151640050826 910.807300058004
-37.20711126398 13.8273514937319 907.39211635769
-40.0304517166386 15.7388795962447 903.066682403336
-42.845377944959 17.6245806930549 898.738833290524
-44.414778058912 19.7399443323071 897.134972496149
-46.3923416907055 21.7572312859932 894.621102963579
-47.954169002754 23.8493506201132 893.015068526592
-49.9224769877756 25.8382278675263 890.498542319718
-51.0677265576452 28.0025968815099 889.800101462467
-52.2112932826474 30.1618004943529 889.101177573523
-52.5385329719682 32.5171574783285 890.222271160968
-52.4609748331837 34.9809219501513 892.254339549991
-51.9811431335954 37.5608420115323 895.198107288129
-52.3159556248207 39.9394433006401 896.321374518186
-51.8445381495707 42.5451903677237 899.267557414782
-52.1843991753988 44.9392878602532 900.392273739915
-52.1236694852908 47.4547063434813 902.429172445854
-51.2634412081781 50.2179322092471 906.290918945098
-50.4099443105359 53.001819679575 910.154597571108
-50.3626773793691 55.5585613719273 912.195360530581
-50.3187761379376 58.1256338665606 914.237089553436
-51.0743734835108 60.4448989786562 914.453970782987
-50.6382957504812 63.1591194696908 917.410297345108
-50.6036501558218 65.754601670597 919.454683042267
-49.3857437068978 68.7708662561447 924.240929230455
-49.3603537590104 71.3947581633238 926.287971601919
-49.7321888373239 73.8869982775233 927.421865529193
-50.105706760505 76.3844037928633 928.556242488158
-50.0887310369558 79.0341227057451 930.60570001808
-49.6837859339778 81.8439031178793 933.570962666496
-48.8933957188723 84.8214931309768 937.452754980944
-48.4993891075339 87.6648486505246 940.421157335355
-48.4992418326611 90.3662215748113 942.475445182194
-48.5024602475239 93.0779253013796 944.530699092416
-48.5090443521216 95.7999598302283 946.586919066021
-48.5189941464548 98.5323251613585 948.644105103009
-49.3031998547782 100.939402092844 948.869197871318
-49.7028018734077 103.516871325861 950.011061821504
-50.1040867369049 106.09950596002 951.153408803382
-50.5070544452699 108.687305995319 952.296238816951
-50.1475461537184 111.636552238248 955.274543321042
-50.174324396728 114.420571580783 957.336559674947
-50.2044683294728 117.214921725599 959.399542092235
-49.8584227968623 120.205491177652 962.381710849858
-49.1387120661982 123.400028038652 966.283790495355
-48.8036050252275 126.424172598118 969.269098958975
-48.8505774066487 129.270176754339 971.336911693179
-49.6532944085162 131.73407309837 971.567317810096
-49.7053153245404 134.595573458013 973.636579639376
-49.7607019303 137.467404619937 975.706807532039
-50.1931194238487 140.145599175195 976.858090600212
-50.6272197622653 142.828959131595 978.009856700077
-50.691020592363 145.726617299221 980.082499751198
-50.0159052506913 149.058037290445 983.997379736524
-49.7178207968087 152.195820675002 986.993314897359
-49.0553267916446 155.56598117478 990.911817620373
-49.5054141563035 158.298412442014 992.068172521308
-49.9571843658304 161.036009110388 993.225010453935
-50.0437036016414 164.003400193412 995.304174432894
-49.7674961310381 167.208333792796 998.306389005721
-48.7658352476069 170.888352424902 1003.15470476629
-48.1369981397954 174.36182094749 1007.08286812313
-48.9691649268467 176.91611181148 1007.32172729465
-49.4386050074835 179.707945191829 1008.48363706004
-49.9097279329881 182.504943973319 1009.64602985712
-49.6604459802674 185.792523990952 1012.65597293702
-50.8570223186002 188.114437739722 1011.97226454636
-51.3331937787079 190.926932724634 1013.13610643852
-52.1695676779281 193.494137091474 1013.37617318927
-52.6482634053373 196.314380178098 1014.54073962896
-52.7718052282364 199.395410086213 1016.63053030513
-50.0507501253223 204.552403763989 1026.12114880978
-24.6686899109233 4.08153511290539 919.685630801983
-27.1173456981224 6.16261453620193 916.282195743643
-29.1395815407883 8.29355525455969 913.782934072854
-30.3190745635933 10.5552109698832 913.094917367317
-32.750901902116 12.5846363817744 909.686651992061
-35.1759978611681 14.5934001891036 906.276454490038
-37.5943624407496 16.5815023918707 902.864324861249
-40.4214770937542 18.465506587601 898.542950012146
-41.996257431041 20.5817410867635 896.941823832763
-43.9814706866187 22.5990429800298 894.431935464758
-45.5486782220013 24.6920331740599 892.828635642761
-47.9367515939651 26.5871581562975 889.407811443522
-49.9068192457339 28.5579714392991 886.893575790292
-51.8718383628997 30.5132885188791 884.377891041987
-52.603034457892 32.7576553144371 884.587768312009
-52.9254804794614 35.1061201170319 885.706890802344
-52.43379204392 37.6731117359812 888.645469796688
-52.3542193715368 40.1463361501749 890.675769634103
-52.278012388889 42.6298913666496 892.707035534901
-52.2051710959765 45.1237773854054 894.739267499082
-51.7311525315453 47.7450057163303 897.682918326188
-50.858480962897 50.5013244611352 901.538712563758
-50.3954008901054 53.1561278994735 904.48550309686
-50.7414067398219 55.5769083180357 905.611388030878
-50.6879181628873 58.1301964499075 907.649174859513
-50.6377952756879 60.6938153840604 909.687927751532
-50.1915436515729 63.4002728338039 912.63954860155
-50.148993566278 65.9871360730891 914.680475136181
-49.7119975889351 68.7220032291056 917.634752660504
-50.0739904648941 71.1918549585027 918.765226395593
-50.4376661857207 73.6668720890404 919.896183162373
-50.4077374369331 76.2924758368795 921.940732434691
-49.9867284858328 79.0764143037309 924.899598760085
-49.5707680693354 81.8758489740039 927.859914180553
-49.1598561874411 84.6907798476986 930.821678696097
-48.7539928401495 87.5212069248148 933.784892306715
-49.1353384320863 90.0504607673275 934.920920906258
-49.1281280890121 92.7457974305639 936.971991106413
-49.1242834356733 95.4514648960818 939.024027369952
-49.1238044720692 98.1674631638793 941.077029696874
-49.5144057107784 100.725126712666 942.215714970721
-49.9066897943551 103.287955662593 943.354883276259
-49.9146250550896 106.029780936093 945.410300761639
-49.9259260055593 108.781937011875 947.466684310403
-49.5562438229221 111.723420213513 950.440283102392
-49.1916101748879 114.680399618572 953.415330989455
-49.2146910394312 117.468713502337 955.475095760061
-48.8593130381691 120.454102613669 958.452800321429
-48.5089835715102 123.454987928423 961.431953977871
-48.543844350127 126.279459620173 963.495099970318
-48.9613711067183 128.919769587207 964.641513751231
-49.3805807081771 131.565244955382 965.788410563836
-49.0462382677605 134.61520158097 968.772153021349
-50.2240484456981 136.871691895153 968.08365328412
-50.64830658176 139.53266346675 969.2319991918
-50.6991543866195 142.406206469334 971.299733985317
-50.0048643739416 145.710057735034 975.206729582202
-49.6907160719369 148.821999174309 978.196268420015
-49.7541852133037 151.734282685447 980.26762595122
-49.077565071736 155.092370663123 984.179693380866
-49.5203345013422 157.810161647266 985.333352637154
-49.964786775816 160.533118032549 986.487494925134
-50.4109218951573 163.261239818972 987.642120244805
-49.3852926729681 166.906797544173 992.480580519818
-48.7355980492828 170.347531940098 996.400376456531
-48.4593137568 173.575694905034 999.400783507407
-49.2855905868146 176.111906865032 999.637952068007
-50.1118674168291 178.64811882503 999.875120628607
-50.5739895624127 181.425311922287 1001.03433474935
-50.3111680288712 184.694798096348 1004.03860605376
-50.4158668694953 187.733633935429 1006.12179786141
-50.885561816984 190.534071337821 1007.28318562476
-51.7177286040349 193.08836220181 1007.52204479628
-52.1899478188249 195.896547705912 1008.68415710717
-52.3047437286549 198.966375951836 1010.77024710497
-52.7811700556138 201.787474958788 1011.93356699509
-50.7573160927216 206.445238559641 1019.56521372527
-16.7409434699262 3.27200693295995 929.179616212105
-22.6012661009104 4.8612785335575 918.550024141166
-25.0589994899098 6.93893427553396 915.151575281118
-26.666085568413 9.13868605285508 913.560912223792
-28.2698059571809 11.3281070278951 911.969283103083
-30.7107108975039 13.3541087584663 908.566003926118
-33.1448844583562 15.3594488844754 905.160792622386
-35.572326639738 17.3441274059224 901.753649191888
-37.9930374416492 19.3081443228072 898.344573634623
-39.99010743318 21.338374658505 895.839874010412
-41.9821288901078 23.3531087907811 893.333725291125
-43.5538752263905 25.4443871441513 891.732918568274
-45.9510262001547 27.3360884450688 888.317080567326
-48.3414457944482 29.2071281414242 884.899310439612
-50.3124316905304 31.1572947594439 882.38712382418
-51.4546472593959 33.2967076276351 881.689002423461
-52.1841605095206 35.5359090220525 881.898396661791
-52.0933176567668 37.9901836723441 883.924271273294
-52.0058404937482 40.4547891249168 885.951111948179
-51.5132338138932 43.0424274088481 888.887641904726
-51.840983236917 45.4149924369053 890.0076914881
-50.9499784196963 48.1463251567574 893.855842853075
-50.8776468604865 50.6574192195947 895.887030813185
-51.2138105078484 53.0558112533545 897.009495555018
-50.7430808112729 55.7105997521127 899.952304923556
-50.680846321269 58.2526862217932 901.986391073816
-50.2193722714657 60.9358844268243 904.931857116659
-49.7629467562651 63.6345788352768 907.878772254576
-49.7124921803347 66.2128231129411 909.916239626678
-50.0654842763731 68.6628691581061 911.043534685427
-50.0209196574795 71.2591923397621 913.082692668449
-50.378118865687 73.7221518877785 914.211195306428
-49.9418874888983 76.4828311099174 917.163906824645
-50.3041352317087 78.9612868613553 918.293858557698
-49.8763180792582 81.7477930891969 921.248985234373
-49.4535494614106 84.54979552046 924.205561006123
-48.2474473277726 87.6805100326887 928.989243848262
-48.2298082267614 90.3594796325933 931.036130338351
-47.8230266351565 93.2105533746915 933.997294911172
-48.2046270939448 95.7484112392452 935.132801508679
-48.587910397601 98.2914345049401 936.268791137878
-48.9728765461243 100.839623171774 937.405263798769
-48.9703830489221 103.565081381944 939.456497574083
-48.582954173295 106.475557237158 942.423217011357
-48.5880334779971 109.22425975246 944.476624429284
-48.2098602491421 112.163145313947 947.446000540863
-48.6082891566069 114.752657189906 948.586337455286
-49.0084009089392 117.347334467005 949.727157401402
-49.0261015501486 120.134777490861 951.784187557015
-48.6639153475364 123.122734363183 954.758152469665
-48.6891887906501 125.933421692171 956.817356267891
-48.3362582348097 128.949788270765 959.793977854845
-48.7498327460834 131.585788756989 960.938662054493
-49.1650901022247 134.226954644354 962.083829285834
-50.3401211460094 136.467092834786 961.395127003102
-50.7570613470183 139.11342412329 962.540777266134
-50.7983218163747 141.973182763113 964.604569865431
-50.4664268213799 145.054116855965 967.58722934853
-49.7639006293356 148.363974503555 971.489480262969
-49.8177824351992 151.262473651932 973.556895599953
-49.1270361572286 154.608489107507 977.462527736234
-49.5624876517817 157.311639808558 978.613491347874
-49.9996219912022 160.019955910748 979.764937991206
-50.4384391754908 162.733437414081 980.916867666229
-49.7670456134979 166.138854982772 984.828054666964
-49.4721732055914 169.333427900714 987.821340847279
-48.8134009801059 172.777585977958 991.736150585701
-49.2656809233356 175.532390690415 992.891944514258
-49.7196437114324 178.292360804011 994.048221474506
-50.5417134292777 180.815659261157 994.284182455877
-50.6326178222298 183.827797234626 996.362224490077
-50.726887904917 186.850266010375 998.441232587661
-50.4606238597604 190.132650747707 1001.44273030673
-51.2885835346424 192.674028108845 1001.68038189903
-51.3921092641018 195.724906590867 1003.76204667091
-51.8603762335738 198.528782614158 1004.92242940054
-51.96979192007 201.597740000172 1007.00578478335
-52.0825732963015 204.677028188468 1009.09010622954
-50.0456126644117 209.357135355382 1016.71322965821
-17.6335482873628 3.61061492756383 921.708835882975
-20.1079320800669 5.70809129335255 918.31754686383
-22.5755844933004 7.78490605457913 914.924325717918
-24.1880507951377 9.98552869181042 913.336397275584
-26.6439232942976 12.0261856450534 909.939794907831
-28.6705198928918 14.1235811351581 907.445355860175
-31.1137710555444 16.1254975798471 904.045130754734
-33.5502908387265 18.106752419974 900.642973522528
-35.980079242438 20.0673456555387 897.238884163554
-37.564778603959 22.1827391739515 895.642985698307
-39.5644496846709 24.1974882458078 893.140818143585
-41.5590722307797 26.1967411142426 890.637201493787
-44.3819553704026 27.9895396884243 886.320563633346
-46.364798002438 29.9526347488754 883.813565761707
-48.7575638190613 31.7995891593486 880.398849705517
-50.3153376627 33.832336259513 878.795222733204
-52.2830346909265 35.7489427096994 876.28387757634
-52.1834459251034 38.1920156977996 878.306051509468
-52.4988288784711 40.5344442393437 879.42195635312
-51.5836008556414 43.2227120302511 883.260774234578
-51.4949505814579 45.699360125765 885.286087873701
-50.5915024727017 48.423785724656 889.128286977001
-50.5112664228566 50.9262608258725 891.156015774583
-50.4343960627467 53.4390667293699 893.184710635548
-49.9543338975195 56.0886748874073 896.12305580783
-49.8850363393141 58.6247250960372 898.153924311407
-49.414229820859 61.3027429603475 901.094926157994
-49.756538292109 63.7278179201399 902.218559508712
-50.1005296082267 66.1580582810729 903.342675891122
-50.8485541518955 68.4540790880361 903.55738347806
-50.793560775065 71.0340352063604 905.592357751016
-49.9405980123381 73.9134228394672 909.449047805065
-49.4941927444639 76.6663390203152 912.397053611181
-49.4518207041408 79.2850356471934 914.435650621824
-49.412814353553 81.9140630763526 916.475213695851
-48.9798718446198 84.7083024663247 919.4270837555
-48.155517444643 87.6755019188205 923.291985348307
-48.1291324305625 90.3432698565335 925.335171160022
-47.3165579446592 93.346627117013 929.20345397467
-47.6925233132623 95.8750100996163 930.336747959222
-47.6770767908215 98.576353144743 932.383073476932
-48.0572492715935 101.117649630197 933.517575040712
-48.0476927061895 103.837071579315 935.565591169343
-47.6509313619108 106.742367093809 938.527846410362
-47.2592185522352 109.663158811724 941.491550746456
-47.2614419009047 112.418738568826 943.542948096928
-48.4311695432349 114.634776533795 942.853318721157
-48.824804782948 117.217396228373 943.991684538471
-49.2201228675289 119.805181324092 945.130533387476
-48.8460799289634 122.780209753983 948.099309556332
-48.477085525001 125.770734387295 951.069534820263
-48.1131396556412 128.776755224028 954.041209179269
-48.520237654296 131.400698127731 955.183439250116
-48.9290184978179 134.029806432574 956.326152352654
-49.7207970080453 136.460127669191 956.553418763575
-50.1321021188689 139.096984075745 957.696856413651
-49.4061941436495 142.366359494961 961.59001536042
-49.065808102437 145.444695947663 964.568452163109
-49.10841972793 148.324245332137 966.631442274181
-49.5315047528272 150.997259546675 967.778261146099
-49.580006335357 153.894887835142 969.842941868091
-49.2564487428207 157.024878299247 972.826208987697
-48.9379396848877 160.170364966775 975.810925202378
-49.3719632014246 162.876954288727 976.960883780291
-49.0618683678297 166.048267961957 979.94801515343
-49.1288812439035 169.002715662969 982.018009224031
-48.8280420570805 172.202439042472 985.007797271473
-49.2730040652571 174.942603471837 986.160895555382
-49.7196489183012 177.687933302342 987.314476870983
-50.167976616213 180.438428533987 988.468541218275
-50.2501350960957 183.439364845264 990.542882574101
-50.3356592657136 186.450631958822 992.61818999331
-50.4245491250668 189.472229874661 994.694463475902
-51.2474602653459 191.998111032378 994.930665973119
-51.3413986593021 195.035205151638 997.008388550786
-51.0750577922662 198.340819254523 1000.00807874791
-51.5393725164206 201.140385797003 1001.16673189627
-52.0053700854425 203.945117740624 1002.32586807633
-52.4730504993324 206.755015085386 1003.48548728807
-49.6999004091591 211.986757683899 1012.9432981066
-16.8418405762427 4.19861027315807 917.86207252011
-18.4664184808845 6.42076537486172 916.278810819533
-20.0876306957909 8.63258967428435 914.694583055574
-21.7054772209621 10.8340831714259 913.10938922823
-24.5969240883353 12.7982257827353 908.81540719317
-26.6303288882797 14.8930535118499 906.324707794232
-29.0826576527326 16.8915462752188 902.929468887083
-31.1051239610373 18.9527988969202 900.435629782149
-33.9671210432267 20.8265469882703 896.133194692485
-35.5563592056478 22.940228666023 894.539789326383
-37.9834452970861 24.8612404122839 891.137304943859
-39.9840346221114 26.8553428191584 888.637186426934
-43.2363473060593 28.5449441253738 883.4220002903
-44.8062327525025 30.5992236900105 881.823040059745
-47.2072347484922 32.4401717185933 878.413068686001
-48.3523062733902 34.572707344984 877.716957352736
-51.1579280525135 36.2734144981265 873.398340701401
-52.2962681979408 38.385288519955 872.70029724137
-52.6051746386893 40.7156594789778 873.81374795622
-51.2636278944184 43.5088513180916 878.55260217929
-51.1670731295996 45.9768804519844 880.574456655885
-50.2511817293079 48.6943989299146 884.41070349751
-49.7525314486569 51.3104170409585 887.341927799232
-49.6685980203454 53.8171866834051 889.367405013514
-49.9968571770719 56.2069597555439 890.486410592818
-49.9188137057972 58.7318083019825 892.513578418021
-49.8441359242577 61.2669876507021 894.541712306607
-50.1791264604548 63.677422327403 895.662650012677
-50.9212610470868 65.9553642303743 895.875666988695
-51.2587758505854 68.373547008786 896.997329242302
-50.790416777552 71.0825423403592 899.937248114474
-49.5212323625899 74.0978464285157 904.696872700285
-49.4667487194622 76.6950105909217 906.730802969171
-49.8168848594681 79.1519338778872 907.856087960466
-49.3678785024127 81.9203313225765 910.801561697092
-48.9239206799604 84.7042249706874 913.748484528793
-48.4850113921109 87.5036148222199 916.696856455569
-48.4490390425273 90.1575983971715 918.736100073063
-48.0193854014498 92.9853979549765 921.687128674143
-48.7833969713612 95.330490072775 921.906425062152
-48.7566802685499 98.0128833539997 923.94832535395
-48.3388065415459 100.876840719788 926.902735176871
-47.9259813491451 103.756294289 929.858594094868
-47.5182046913471 106.651244061632 932.815902107939
-47.115476568152 109.561690037685 935.774659216086
-47.1089540037522 112.306068132596 937.822355888183
-48.2767439343633 114.508336674383 937.132765482756
-49.0533768407821 116.892169300735 937.355684608452
-49.0527442334193 119.654626299639 939.405071891471
-49.0554773157914 122.427414100822 941.455425237873
-49.0615760878991 125.210532704287 943.506744647658
-49.071040549742 128.003982110033 945.559030120826
-49.0838707013199 130.807762318059 947.612281657378
-49.1000665426337 133.621873328368 949.666499257313
-49.5032122959702 136.241506751259 950.806999746895
-49.5252980943207 139.07369666556 952.862907957751
-49.550749582406 141.91621738214 954.91978223199
-49.1985068052404 144.98162539241 957.893030290885
-48.8513125626777 148.062529606101 960.867727444856
-49.2679210749556 150.723486238117 962.012092187972
-49.307676744416 153.609912864392 964.07307223159
-49.3507981036119 156.506670292949 966.135018338591
-48.6435794669082 159.864698512304 970.031161109981
-48.3191036300588 163.015335641392 973.012379191789
-48.7500163237116 165.720198183103 974.160849704284
-48.4339547112002 168.896662317893 977.14448294455
-48.4964287863742 171.852821859566 979.211983916005
-48.9349142819312 174.580928706409 980.362628071112
-49.003278314142 177.555167152074 982.431819653488
-49.4459709218681 180.296187501768 983.583671387824
-49.8903463744623 183.042373252603 984.736006153852
-50.3364046719239 185.793724404578 985.888823951571
-50.0472685772951 189.052834957617 988.880185698904
-50.4983754093597 191.819682313014 990.034452591698
-50.5844093126806 194.848157470655 992.108716006837
-50.6738089057368 197.886963430576 994.183945485358
-50.766574188528 200.936100192777 996.260141027263
-51.2269366673647 203.731357254447 997.417064594362
-52.0523720749451 206.264986513874 997.653991639116
-51.7901614981987 209.606743485162 1000.65308189352
-49.3627560220037 214.595748287013 1009.17939675735
-10.9767362870609 3.06737036445773 922.80454156141
-15.2011683994941 4.91386705523753 915.823577991659
-16.3989946708715 7.20050879551385 915.143204158717
-18.0247456866781 9.41062125427641 913.561469493903
-19.6471310127494 11.6104029107579 911.978768765705
-22.1220001379438 13.6467952019309 908.59238031038
-24.5901378836675 15.6625258885417 905.204059728289
-27.0515442499208 17.6575949705906 901.813807019431
-29.0808187595757 19.7162798313018 899.323707563216
-31.5296037893215 21.6726084047966 895.92983211667
-33.5479398073367 23.6977181580944 893.43659295446
-35.9841035005753 25.6153062230353 890.039094770227
-37.9915010269507 27.6068408689197 887.54271590202
-41.2574301135991 29.291306653155 882.335009062823
-43.2522063034672 31.2441007904855 879.835007456929
-45.2419339587324 33.1813987243943 877.33355675596
-47.2266130793947 35.1032004548816 874.830656959916
-50.0418990159006 36.7944626052336 870.517790024754
-52.0147982224894 38.6801065277373 868.011509006868
-52.3180695730526 41.0010026048089 869.122747108762
-51.3771135447179 43.6728734532242 872.949418951026
-50.8573508813417 46.2475534155637 875.872797834651
-50.3426367525685 48.8377295813247 878.79762581335
-49.8329711583983 51.4434019505074 881.723902887125
-49.328354098831 54.0645705231115 884.651629055975
-50.0620744611248 56.3166854203803 884.862230873534
-49.9752850767809 58.8303323046275 886.885698020362
-50.3012748330573 61.2209612970963 888.003457050093
-50.6289474342012 63.6167556907057 889.121699111516
-51.3660334862304 65.8792013902555 889.333266992458
-51.2893411710923 68.423840681346 891.359632329436
-51.2160145456895 70.9788107747174 893.386963729797
-49.5252282551581 74.1291604580132 899.046788232379
-49.4619986989612 76.7151229582279 901.07701782289
-48.9986113386512 79.4628438587749 904.016578268185
-49.3456366557732 81.9180403655002 905.140375194061
-49.2925041687822 84.534995272558 907.173502974722
-49.2427373715264 87.1622809818969 909.207596818766
-49.5964940681189 89.6381390931843 910.33332587141
-49.1533008462208 92.4478448074177 913.278682697005
-49.5121060774161 94.9391991221263 914.405860844723
-49.4749606166678 97.6052253400193 916.443577426454
-49.4411808456546 100.281582360193 918.482260071569
-49.0148160724328 103.142942085831 921.432447214081
-48.5934998338143 106.019798014892 924.384083451667
-48.1772321297981 108.912150147373 927.337168784328
-47.7660129603854 111.819998483277 930.291703212065
-47.7524273277841 114.558340317137 932.336182237479
-48.5256945444675 116.931842141208 932.558135299792
-48.5171574464691 119.68568017849 934.604063420282
-48.9020467731132 122.257098210877 935.738728559221
-49.2886189446248 124.833681644404 936.873876729851
-49.2884960709645 127.613346687389 938.922220008799
-49.2917388870397 130.403342532654 940.97152935113
-49.29834739285 133.2036691802 943.021804756845
-49.3083215883956 136.014326630028 945.073046225942
-49.7066736739811 138.62706787154 946.211575618414
-49.7225378265632 141.455804225358 948.264507698433
-49.7417676688812 144.294871381459 950.318405841835
-48.9993873349287 147.576259564456 954.202075423713
-49.0270314015846 150.441153726259 956.258388725573
-49.8196513342461 152.874057663446 956.48589665234
-49.4723802698038 155.97819124269 959.458786284359
-48.7510354966969 159.324146939944 963.348493762383
-47.6581412822269 162.919672856918 968.155743633949
-47.7059794872948 165.846551832408 970.217853316108
-47.7571833820978 168.783761610178 972.280929061652
-48.5632660737004 171.25798875649 972.512301241952
-48.9944336342047 173.971455320241 973.660249752411
-49.053210330912 176.931909403143 975.725499140567
-49.1153527173547 179.902694288327 977.791714592105
-49.1808607935329 182.883809975792 979.858896107028
-49.2497345594461 185.875256465538 981.927043685333
-48.9512659961654 189.129186677856 984.91394123641
-49.3975791604787 191.889141851873 986.066237032094
-49.8455751696594 194.65426242703 987.21901585947
-49.5588865204522 197.944350447331 990.209294632388
-50.37927339343 200.462483503338 990.444772582067
-51.1996602664074 202.980616559343 990.680250531746
-52.0200471393852 205.498749615349 990.915728481426
-51.7459798266855 208.827578144205 993.909629992031
-50.7490077696714 212.71753192619 998.744412670021
-9.32328913004579 3.7903453690876 920.758809251368
-12.2643555198021 5.8285751953451 916.485021219101
-14.3315708608586 7.98025221616597 914.0075974979
-15.9618606775654 10.1886528342685 912.428355932232
-18.0198203718498 12.3119201488164 909.948275536726
-19.6425373866521 14.4970764617866 908.366860328445
-22.5499468790554 16.4319982652336 904.083411662346
-25.0204308471089 18.4236436659623 900.698145151779
-27.0565135581141 20.4797607656835 898.211785344282
-29.5143761896601 22.4326656578582 894.822896096028
-31.5395204090256 24.4552076501659 892.333396582536
-34.4099073143407 26.2764906285214 888.03932121922
-36.4232716196325 28.2628748128455 885.546440483886
-39.7019756865475 29.9396223745303 880.34597142628
-41.702718655332 31.8872660503004 877.849467953258
-43.2766331689726 33.9226257301953 876.254044825919
-44.8471819928778 35.9476546078092 874.657655635197
-47.2545592783946 37.7455974657682 871.254275436193
-49.6552051844408 39.5228787191652 867.848963110423
-50.7938770185991 41.6201273974823 867.152205170309
-51.0957203911461 43.9444620954543 868.262438238475
-50.9825152226225 46.3926706055349 870.277132874166
-50.4567857803301 48.9725010294346 873.197013624918
-50.351153413711 51.4439538446474 875.213881903222
-49.8346796181905 54.0521939748202 878.136419328278
-50.1499857496786 56.4178518819164 879.250516649978
-50.0544504522654 58.9202971039724 881.270283118431
-49.9622808445874 61.4330731283094 883.291015650268
-50.2843183555461 63.8193926399678 884.407045098734
-50.6080387113724 66.2108775527666 885.523557578893
-50.9334419120664 68.6075278667059 886.640553090743
-50.4438936344283 71.298414415127 889.570819022865
-49.5519181522271 74.1519152842105 893.4091692602
-49.4799426829609 76.7266761222338 895.435698172336
-49.0055400091317 79.4640512809196 898.370311389683
-49.3460888136343 81.9071902051237 899.491654186758
-49.284210413574 84.5129434499902 901.521081289044
-49.628966330246 86.9689958770456 902.643631665348
-49.5729778872225 89.592828025904 904.674749378555
-48.7171835696756 92.5573850195085 908.52348479726
-49.0703537106858 95.0392644522666 909.648450332022
-49.0253037593018 97.6966717085383 911.682707751225
-49.3826810124813 100.191464644148 912.808880865216
-48.9453009257401 103.042478627925 915.75412077978
-48.9103480435621 105.73087829104 917.791276389132
-48.4822236035931 108.61030198109 920.739172978
-48.4548435233195 111.321945949337 922.778502229965
-48.0359747301227 114.229779345661 925.729055493137
-48.4101804319782 116.776226292675 926.860058924045
-48.3928974209105 119.518862667765 928.90228636616
-48.3789800995783 122.271829845137 930.945479871658
-48.3684284679812 125.03512782479 932.98963944054
-48.3612425261194 127.808756606723 935.034765072805
-48.3574222739929 130.592716190938 937.080856768453
-48.7459321572236 133.183069047647 938.215965968739
-49.1361248853219 135.778587305496 939.351558200718
-49.528000458288 138.379270964487 940.487633464388
-49.9215588761217 140.985120024617 941.62419175975
-49.9312013829361 143.810402817956 943.674147708931
-49.5594522460333 146.862867446214 946.638225859469
-49.5766675547524 149.711394544685 948.690355451263
-49.597248553207 152.570252445437 950.74345110644
-49.2389621752452 155.664040282819 953.711393510511
-48.5043326881689 159.000506158542 957.594907211015
-47.7764345805632 162.357633638826 961.480353038285
-47.8146854501279 165.270728251554 963.538520526224
-47.4774346330119 168.429083603193 966.512500826441
-47.9012842584631 171.127909883853 967.657753692253
-48.3268167287819 173.831901565653 968.803489589756
-48.7540320439685 176.541058648594 969.94970851895
-49.1829302040227 179.255381132676 971.096410479837
-48.4895304162037 182.718399336341 974.991758456786
-48.1766808496685 185.951653004517 977.972742716532
-47.8688798177362 189.200402876115 980.955176071353
-47.9382633173523 192.209057409942 983.022279645587
-48.7536016557271 194.711694262527 983.256308500192
-48.8280336899462 197.735844999776 985.324861169502
-49.2754431435444 200.506986896403 986.476876478996
-50.0933057492205 203.017371850698 986.711629881138
-50.5432394701204 205.796261849036 987.86436973817
-50.6277685735455 208.851404993129 989.935820597629
-50.7156633667057 211.916878939502 992.008237520472
-50.8069238496011 214.992683688156 994.081620506699
-49.0787340470267 219.472998470713 1000.75073214768
-1.21429794056155 2.95637335333544 930.160300783473
-7.67438077393075 4.51160853305743 918.715570040472
-9.75429427337423 6.67879669688006 916.243576578909
-11.3941714255841 8.90098167774404 914.668277207461
-13.4648292782555 11.0397601352938 912.193627071595
-15.5304385963241 13.1630423894219 909.717527840654
-17.5909993797897 15.2708284401285 907.239979514638
-20.5097558744433 17.2014706419254 902.962763596403
-23.4200981447588 19.1062858380197 898.683132519709
-25.4621476346803 21.1572524761805 896.200270845085
-27.4991485899988 23.1927229109197 893.715960075386
-29.9593574438746 25.1215425172123 890.330124898656
-32.4128349182799 27.0297005189428 886.94235759516
-34.433007424922 29.0135169422768 884.453216508545
-36.4481313969611 30.9818371621891 881.962626326854
-38.8830975778222 32.8331757513738 878.56954567475
-40.8872830582217 34.7679208638728 876.075815787063
-43.7328358011326 36.4738681160569 871.777587990241
-46.5699743197055 38.1539883625384 867.476945034961
-48.5556485065609 40.0319140624916 864.977901798666
-50.1155905275575 42.0087424891806 863.379658421865
-50.8324824411749 44.2092033750442 863.585429922508
-51.5493743547922 46.4096642609077 863.79120142315
-51.4299475405008 48.8544192105078 865.802919928004
-50.8965684744243 51.4342346948274 868.718819514192
-50.3682379429508 54.0295463825685 871.636168195455
-50.2605910427329 56.5104591401522 873.65126792215
-50.1563098322505 59.0017027000169 875.667333712229
-50.0553943115033 61.5032770621627 877.68436556569
-49.54473365114 64.1528254618794 880.606786079716
-49.8636603392147 66.5374181932975 881.721327462764
-49.7728418876735 69.0699849622864 883.741257506375
-50.0959756879174 71.4674911965558 884.857006468653
-49.6013020537966 74.1661109071075 887.784015783749
-49.5205806714612 76.7296700829395 889.80684401751
-49.0351626841127 79.4566994997641 892.73651000691
-49.3692349759962 81.8877808414469 893.855398675183
-49.7049901127475 84.3240275842702 894.974770375148
-49.6368900669194 86.9263272686562 897.001221346597
-49.1674591058135 89.7024279963157 899.935476137067
-48.2992214967312 92.6600778689601 903.778259294098
-47.8407290272647 95.4697537040322 906.715653790564
-47.7894574301131 98.1237073998236 908.746935078929
-48.1428824379748 100.614190854623 909.871378611656
-48.0975007978598 103.286223454405 911.904350510942
-48.4551329178904 105.789620412056 913.030001622898
-48.4156412348123 108.479731915831 915.064664133105
-48.3795152414697 111.180174221887 917.100292706696
-48.3467549378622 113.890947330224 919.136887343669
-48.3173603239897 116.612051240842 921.174448044026
-47.8958904416118 119.535365901007 924.122469237709
-47.0848695580293 122.668639412428 927.981675472255
-47.0680962806645 125.4284838316 930.022858910299
-46.6617720020953 128.398287102029 932.975227389207
-47.4367220636466 130.776954327241 933.197663483212
-47.8204382791255 133.360415002569 934.330801586388
-48.5962297631106 135.741664928351 934.553479196239
-48.9824702458912 138.33287370539 935.687341846953
-48.9816839947691 141.141789435398 937.733114086068
-49.3721315897186 143.745911715287 938.868184316011
-49.3772352956332 146.572906349286 940.915647166046
-49.385704691283 149.410231785566 942.964076079465
-49.3975397766682 152.257888024127 945.013471056268
-49.028238085187 155.341330119648 947.976466232392
-48.2803238841415 158.668306173839 951.853786155375
-47.9219606843002 161.785323376773 954.819921037494
-47.186667819762 165.151039939519 958.700863698165
-45.6958327809621 169.008989820746 964.410938884246
-44.5953901658003 172.659563551286 969.210070545308
-45.0211775029705 175.372159255127 970.355284440776
-46.5844852137025 177.359318484097 968.758007127358
-48.144427234699 179.336146910786 967.159763750557
-48.1932849071725 182.297441974439 969.219785424575
-47.8694200271179 185.520349900754 972.195822456374
-47.175356861837 189.012618791442 976.08859939349
-47.611241268213 191.756206902126 977.236711479107
-48.4223724944185 194.245930251859 977.469532754482
-48.8607811680963 196.997266464254 978.618369387637
-49.6727538167356 199.489572514557 978.851432178858
-49.7426470500545 202.515435092467 980.917491749023
-49.8159059731089 205.551628472657 982.98451738257
-49.8925305858984 208.598152655128 985.052509079501
-50.3410363287819 211.380481274367 986.204243902806
-51.158898934458 213.890866228662 986.438997304948
-50.8762637536607 217.240326482919 989.426868613192
-49.5007035882944 221.452106342272 995.17003147015
-2.17995648422362 3.30802930701232 922.72655851465
-5.59107116076729 5.29734339601973 917.571237532645
-7.23969422604631 7.53073003907502 915.999638839572
-8.88495160159005 9.75378587984929 914.427074083115
-10.5268432873985 11.9665109183424 912.853543263275
-13.4720923881114 13.939362128754 908.586907378129
-16.408927264486 15.8863863334628 904.317856334524
-18.9034563931768 17.8892632755432 900.94425283146
-21.391254142397 19.8714786130614 897.56871720163
-23.4401118336687 21.9198774902321 895.089595175724
-25.9152882463815 23.8633523191964 891.710436808207
-28.3837332796239 25.7861655435986 888.329346313922
-31.2751313445719 27.5937239175133 884.047253414643
-33.3004292076966 29.5698071787167 881.561368945054
-34.8926769699096 31.6301528835644 879.973588690311
-36.4815590423872 33.6801677861311 878.384842372184
-38.9197128680117 35.5100037900039 874.99505730745
-41.7766126131731 37.2116714405378 870.703062258492
-45.0497340105699 38.7774226360222 865.508132677772
-47.0413749763416 40.6501978744151 863.01258757435
-48.6050143758045 42.6227317598739 861.416595780848
-49.7431764762601 44.7027723941093 860.720881844804
-51.7221961055244 46.5368071239483 858.221714003695
-52.0144521425682 48.8473574591588 859.328004877641
-51.4692163405386 51.414244501047 862.238715720036
-49.6727913145016 54.381132806373 867.857505610178
-49.5580813460822 56.8560093029059 869.86938769019
-49.4467370673981 59.3412166017199 871.882235833586
-49.3387584784493 61.836754702815 873.896050040364
-48.8187653494343 64.4811227618109 876.814006358134
-49.1328983697576 66.8588233118483 877.926576644072
-49.4487142349484 69.2416892630261 879.039629961701
-49.353356982507 71.7759678726751 881.057066906167
-49.2613654198008 74.3205772846051 883.075469914016
-48.7615664291976 77.0269301572874 885.999222612086
-48.2668159731973 79.7487792333912 888.92442440523
-49.0055848700941 82.0163903340815 889.136475317864
-49.33570491666 84.4431621949539 890.253634404873
-49.6675078080935 86.8750994569667 891.371276523573
-48.3731295225417 89.9695067654099 896.111766498228
-47.4932900443575 92.9228322176626 899.948838909429
-47.8360314274308 95.388344587089 901.069620734125
-47.3715721790481 98.2031708837222 904.003517097719
-47.7193620967245 100.68417945657 905.12574801749
-47.666075965974 103.347593094732 907.155260754247
-47.6161555249591 106.021337535175 909.185739554388
-47.5696007736796 108.7054127779 911.217184417911
-47.9266463381276 111.214831057021 912.342072011986
-48.2853747474437 113.729414737282 913.467442637753
-47.8486824393768 116.629470152733 916.409309024259
-47.4170386659134 119.545021771607 919.35262450584
-46.5935744907955 122.671388162068 923.205878478712
-46.568896722795 125.422613619619 925.243602754227
-46.94277073592 127.983685910145 926.373320665218
-47.712672262868 130.346856931935 926.594307664148
-48.0890705432942 132.915677324172 927.724750122677
-48.0744898444998 135.697895188566 929.765372588342
-47.6714544337864 138.701258626828 932.716899608681
-47.6644465368963 141.506720796355 934.759695716959
-48.4410794433151 143.890553422707 934.982614842655
-49.2177123497339 146.274386049059 935.205533968352
-49.9943452561527 148.658218675411 935.428453094048
-49.2205250046304 151.936964399518 939.295956501823
-49.2269798666814 154.783749778168 941.342616863634
-48.4649395292327 158.098653310258 945.213501493251
-48.4798086156219 160.971265694611 947.26257701352
-48.1137957919966 164.088267957965 950.224730731076
-46.2192067937095 168.167333533901 956.837748142702
-42.8061386899664 173.239454829259 967.104527438548
-41.7019218744589 176.917552466582 971.89959999436
-44.4149383834364 178.177578319601 967.566305735766
-47.119540668076 179.411777166917 963.230596318713
-48.2989324677886 181.618370129095 962.546716659115
-47.9632108517811 184.828349612979 965.51756494712
-47.6325377703762 188.053825300284 968.4898623302
-48.0602628192657 190.780190427307 969.635037255324
-48.4896707130227 193.51172095547 970.78069521214
-48.9207614516474 196.248416884774 971.926836200647
-49.7276855656838 198.725226731655 972.158449896793
-50.16130057161 201.46967076267 973.305315432838
-50.2241307367271 204.489497079528 975.368157356319
-50.2903265915797 207.519654198667 977.431965343183
-50.3598881361677 210.560142120088 979.496739393431
-51.1727022072408 213.055030870961 979.730043700498
-50.8782102904906 216.391562682788 982.712726264949
-50.2205063348357 220.02672108559 986.613558859448
7.33782840948624 2.64059524766241 934.771846407746
-1.85123399168941 3.84107265430568 917.995044555364
-3.94897100600241 6.01603879899948 915.531737970468
-5.16092341378305 8.31475306137725 914.857799430892
-6.37119297669602 10.6083019226145 914.183377859624
-9.33452045912975 12.597535135938 909.924906849108
-11.4137461798987 14.715681868086 907.456286915603
-13.9249257122942 16.7383794339786 904.089843253443
-16.4293738652191 18.740415395309 900.721467464517
-18.9270906386734 20.7217897520774 897.351159548824
-21.4180760326571 22.6825025042837 893.978919506364
-24.3359667036644 24.532269886813 889.707406640173
-26.8126479162732 26.4490767293249 886.331060828334
-29.7145515610379 28.2497728010192 882.054959161073
-31.3147038138862 30.3187374674879 880.470638068858
-32.9114903769992 32.3773713316756 878.88535091326
-34.934340794702 34.3224771256161 876.400549418086
-37.8093189215843 36.040526779062 872.116719243758
-40.248136124671 37.841112095912 868.729505218857
-43.5340325023342 39.3991450688459 863.541813419728
-45.9577041016121 41.1532417754312 860.150252109602
-47.5241994571075 43.1188984190895 858.556270383554
-48.6629481131455 45.1929177318545 857.861319965392
-50.2235535116042 47.1404954715208 856.265647628423
-51.3580950554731 49.2016012814345 855.569489631031
-50.8035267847918 51.7633079826018 858.47573627717
-49.8329917287265 54.4695351608596 862.284395453035
-48.8691880521319 57.1964239436795 866.094986755667
-48.7507807052461 59.6755949814428 868.10461725238
-48.6357390480957 62.1650968214872 870.115213812475
-48.9417127109322 64.5255743878626 871.224846937919
-49.2493692186362 66.8912173553786 872.334963095055
-49.142741785824 69.4065462011256 874.347974813609
-49.0394800427471 71.9322058491535 876.361952595546
-48.5253000488893 74.6178821776936 879.279792002285
-48.8430536257993 77.0145175520527 880.39280634957
-48.3372878562797 79.7260208862953 883.313060914767
-48.6600899677925 82.1381524640761 884.427524357128
-49.3954931749539 84.3954327624854 884.638609206379
-49.7208195537684 86.8153124419769 885.753797196277
-48.8201225597105 89.7359037675665 889.582502187346
-47.9261569451231 92.6771566977181 893.413139305181
-47.8540278320975 95.2983762668456 895.436053173414
-48.5986866860313 97.5840662715284 895.649794696969
-48.5316061076086 100.220782044077 897.674157660276
-47.6578346314331 103.224019787915 901.510591158412
-46.7907945347282 106.247919136315 905.348956783313
-46.3338312663702 109.109219103633 908.283219267568
-47.0894286119436 111.428484215729 908.500100497119
-48.2466885615255 113.559322941039 907.810463427564
-47.7989809399397 116.44903261463 910.747382586123
-47.3563218529568 119.354238491642 913.685750839756
-46.5195729638697 122.471115060572 917.532811035108
-46.8844461970737 125.012381666866 918.65935026976
-48.0459132588249 127.156133895028 917.970920779434
-48.8090834063026 129.498643312256 918.189975651597
-48.7807082598359 132.254163311037 920.225448343813
-48.3607675785662 135.229102103446 923.170337525284
-47.5517856297951 138.431207791195 927.025367743547
-47.5360318198359 141.22546829853 929.06446317345
-47.9160506568485 143.813223515088 930.195349693327
-49.0808834083351 145.967306545531 929.507886266385
-49.4625850902156 148.560227163231 930.639255817953
-48.6763215471577 151.832065766376 934.500806964054
-48.6748719185734 154.670232183406 936.544008163336
-49.064987824792 157.288979806807 937.677792873363
-49.4567865758785 159.912892831349 938.812060615081
-48.6907171712323 163.246716248181 942.679408141482
-47.5457035682905 166.838698967194 947.459794894825
-44.8697675683571 171.416830284671 955.887991270715
-43.3609553709285 175.313460916132 961.585764536226
-44.9274507264237 177.279117559789 959.991782810178
-46.872890280215 178.986614901266 957.484761857188
-48.0503443682088 181.179438440263 956.800921167933
-48.4648615250082 183.873084380202 957.941709837488
-48.1214902852167 187.083048924506 960.908576960929
-48.5410559766192 189.792191067866 962.05081472556
-48.5842017370276 192.76724061512 964.106816264671
-49.3852358940272 195.225971558009 964.336739349896
-50.562689982021 197.418795097006 963.652898660641
-50.9873042080267 200.143433443789 964.796585520346
-50.6641271066464 203.415382801778 967.769249024087
-50.3459985398695 206.70282836319 970.743361622903
-49.6598642664364 210.282008334196 974.633653154657
-50.0970998289493 213.045387189533 975.78096275205
-50.1646468399385 216.095335053324 977.843968250689
-50.6060895146207 218.871627411512 978.992485427311
-50.3098379311229 222.226223187749 981.972877438118
-48.5432463658692 226.75292200351 988.618468212371
5.46234009865447 2.87973462500695 925.560399101106
0.236614422374203 4.62851935792803 916.848218948392
-1.42445193444041 6.8688131219443 915.282572516993
-3.08215260151974 9.0987760836795 913.715960022211
-5.17828359284476 11.2453474616806 911.253977927575
-8.15127523266131 13.2251356722134 907.001256633231
-10.2356263099128 15.3355492422308 904.535893316754
-11.8756571058818 17.5112754919905 902.964208989209
-13.9507525363613 19.593279355735 900.496188998428
-16.4583883340497 21.5738127317536 897.131108796871
-18.9592927522675 23.5336845032101 893.764096468548
-21.889371847959 25.3817549846595 889.499057866068
-24.8110367193123 27.2039984604064 885.231604105129
-27.7242873663272 29.0004149304505 880.961735185732
-29.7623602097185 30.9687799691035 878.483088497734
-32.2279248857157 32.820178316609 875.105932503886
-33.8233602926921 34.8590214361447 873.521447836513
-36.2771450546159 36.6742619756665 870.140910620824
-37.864166237254 38.6872780894996 868.554010794992
-40.3061710851043 40.4663608210377 865.170092357462
-42.7414445534839 42.2247819480138 861.784241793165
-45.1699866423929 43.9625414704276 858.396459102101
-47.1651469416591 45.7991887799972 855.905495105966
-48.3036407308458 47.8646040707214 855.211066689838
-50.2903868057738 49.6754243745884 852.717687535245
-50.575579774616 51.9799384487481 853.820760762508
-50.439170867889 54.4194981180473 855.824033906542
-49.4612410548912 57.1343143787656 859.628189915808
-48.9116444969331 59.7347466489067 862.53407813507
-48.7878569267134 62.2130468267598 864.540974016791
-48.6674350462291 64.7016778068939 866.548835961895
-48.9694564637478 67.0578458924589 867.656739506074
-48.8549245403002 69.5645557765848 869.666292062099
-48.3263635431877 72.2295555609825 872.578218177507
-47.8028510806782 74.9100515488018 875.49159338799
-48.1158109898366 77.2997947417802 876.602636638165
-48.0155832477639 79.8504105356006 878.616294963569
-48.3327502690914 82.2530672314304 879.728545792974
-49.0647877865176 84.5000167275586 879.938664578841
-49.7968253039437 86.7469662236868 880.148783364709
-48.8828435959165 89.6580677277452 883.971294578257
-47.5649298834302 92.7584515389184 888.699077541339
-47.4848962797694 95.3710521464252 890.718532247042
-48.2261894439677 97.6464113488265 890.931307707214
-48.5593434915378 100.098139355491 892.048147337689
-48.0795849955869 102.912935772963 894.974081372155
-47.1984187624787 105.924762599262 898.806011703691
-47.5408284568211 108.4049003122 899.92550800847
-47.4801475691383 111.076903032823 901.950517578628
-48.2306963801084 113.380671941497 902.165949713103
-47.3688828629781 116.451900880911 906.003434909093
-47.7205482040926 118.960448300122 907.125587888176
-47.2710809157595 121.868221938124 910.060216493092
-47.6277947914767 124.392265560756 911.18381856725
-48.3859164043511 126.719278774562 911.401424344338
-48.74515454737 129.251070498905 912.525750966034
-48.7080334878342 131.995388835496 914.557522979875
-47.4826762430683 135.379869709398 919.311872685997
-45.8693740200864 139.00270420125 924.976082942722
-46.2437577669138 141.580984535857 926.104756849643
-47.8038534316696 143.511354231442 924.510128516745
-48.9667484714371 145.651667838704 923.822704060146
-48.9489801278792 148.45538828841 925.860030938441
-48.1502732932855 151.720319770594 929.715629822867
-48.140919174066 154.549867226003 931.75537185962
-48.1349307445815 157.389745483693 933.796079959757
-48.9115636510003 159.773578110045 934.018999085453
-48.1330509548186 163.100494405915 937.880394350179
-47.3612696381074 166.448072306348 941.743721741672
-46.5962197008668 169.816311811343 945.608981259932
-46.6104254097942 172.718174882719 947.655485740368
-47.3988382302865 175.138165317055 947.881786087906
-47.4180924738167 178.055524591852 949.929739663417
-47.8244502731296 180.73194754813 951.067591172479
-47.8495944736965 183.667385726919 953.117235358911
-48.2601593851785 186.356722186048 954.256294447202
-48.2911935427821 189.310239268829 956.307629244555
-48.3255933901212 192.274087153892 958.359930105291
-48.7428896810738 194.984085217583 959.500921320348
-49.5405581483379 197.432485358191 959.72987834219
-50.3382266156025 199.8808854988 959.958835364032
