ply
format ascii 1.0
element vertex 882
property float x
property float y
property float z
property uchar red
property uchar green
property uchar blue
element face 0
property list uchar int vertex_indices
end_header
-27.0276698713626 53.5965578966261 515.901161217 71 72 60
-26.1505410773911 53.7669243974672 513 88 94 86
-24.9244344312747 54.4674936797619 515.647983184117 83 84 72
-23.4436570376928 53.9765420364437 515 47 53 46
-22.7706581125352 53.7525469758813 514.465537862598 40 42 32
-21.9964446648168 53.8717332169554 514 45 51 44
-20.5546863413911 53.7669243974672 513 50 56 49
-19.8376180156226 54.434095737893 515.688706436443 76 73 57
-19.1930632473665 53.8717332169554 514 51 57 50
-17.7913725386413 53.8717332169554 514 51 57 50
-16.4215683704413 53.9765420364437 515 54 60 53
-15.0754696685909 54.1861596754201 517 41 47 39
-13.6920303767652 54.2909684949084 518 42 48 40
-12.2373026647528 53.6796706209282 516.896256504124 41 39 28
-10.80389743664 53.9765420364437 515 54 61 50
-9.41773112008912 54.0813508559319 516 45 52 41
-8.4910227646275 54.0021192244151 516.317279149105 67 59 42
-8.04272007472434 53.9993524638936 518.705061559971 61 55 38
-7.17750156822041 53.8169609957296 520.1962889561 70 66 50
-3.81852535938254 54.5005861338849 520 50 52 35
-2.3866236224855 54.1861596754201 517 118 118 98
-0.974862571036381 54.0813508559319 516 124 123 101
0.432282187139076 54.0813508559319 516 118 118 92
1.05551676630017 54.1006484082227 517.204490868273 118 115 87
1.8429917262163 54.1861596754201 517 114 112 88
3.25286350911691 54.1861596754201 517 119 117 97
4.67175412236958 54.2909684949084 518 73 71 53
5.69911191021231 54.4201955252833 521.401150136035 44 42 24
6.10784464014975 54.5005861338849 520 40 38 20
7.51142461742343 54.3957773143966 519 35 32 16
8.22982937787359 53.7056364941586 522.574933378559 41 39 21
8.92675044977433 54.3957773143966 519 38 35 19
10.3620032113779 54.5005861338849 520 42 39 23
12.6382836538385 53.663486964091 520.128120321457 49 47 29
14.638650842434 54.5068186876149 519.832379392597 84 82 58
16.6324855467672 53.7917127063179 518.579869950264 113 110 82
17.5132359369421 53.6190980824908 520.077014037451 111 108 78
19.4994909698281 54.4579170309109 519.775500019633 116 111 80
20.7480741143845 54.1053741755928 520.354610880764 121 118 88
22.3565906110813 53.5723010514145 520.012282103306 120 117 87
25.5725236073073 54.0554177009109 520.281882783339 128 125 95
28.2387053900992 54.5189611205501 518.12128175863 123 122 94
29.1263783977232 54.3528892690743 519.62086432329 118 115 87
30.3653754912656 54.0030530767529 520.195529035776 121 118 88
30.9161034894918 54.0166855716279 522.62669867558 119 114 84
34.8003335295713 53.5929422506243 525 113 109 75
36.3010348845783 53.6950240453874 526 103 98 67
36.9273606370035 53.6146340119086 523.10597374111 106 101 71
38.6163611401683 54.3613224609133 539.115890691811 132 125 95
39.2499902999737 54.3572123895496 541.584996197205 112 105 74
40.2102685541824 54.1734726002153 543.11799667776 110 103 73
40.9902521432627 54.2054330192029 531 113 108 77
41.8046728951697 53.6358867009332 542.769894811344 107 102 72
44.0834920022877 54.3216947910688 541.514921980404 61 57 32
45.3615532655355 54.081707060771 582.632190872454 0 0 0
46.2735332796384 53.8502853605676 542 113 110 82
47.6012521967207 54.0967718194444 571.561061856316 99 96 76
48.5817353439766 54.4625728385731 542.377474574857 87 87 69
49.4112872259098 54.0489949006435 544 54 52 34
50.1531513422213 53.9258128618003 542.019225271888 105 105 87
52.0957194085892 53.5634480956047 545.094405734489 123 121 101
-39.7229604030484 55.1294390508143 526 147 150 138
-36.159238726851 55.0386482227628 520.533508391021 63 62 56
-34.7463367672473 55.4884956141074 516 76 80 73
-33.3391920090719 55.4884956141074 516 79 83 76
-31.808279625893 55.2734239256806 514 69 73 66
-30.4065889171678 55.2734239256806 514 62 66 59
-28.9484684453912 55.1658880814672 513 56 60 52
-27.5284108243523 55.3629656421747 517.712318134123 68 65 49
-26.09956536379 55.0583522372538 512 65 71 63
-24.7998260822671 55.2734239256806 514 56 62 55
-23.4891787018437 55.4884956141074 516 54 58 51
-22.0392393042425 55.380959769894 515 60 64 57
-20.6348215707922 55.380959769894 515 69 73 66
-19.2304038373419 55.380959769894 515 56 60 53
-17.756758973391 55.1658880814672 513 43 47 39
-16.357795289391 55.1658880814672 513 38 40 30
-16.0496553272004 54.9333276601209 518.398584456722 73 70 54
-15.017150636991 55.380959769894 515 34 36 26
-13.6391653946155 55.4884956141074 516 42 44 34
-12.23202063644 55.4884956141074 516 50 51 39
-11.4168552266014 55.0758675733001 519.319942198274 60 50 31
-7.20647383209072 55.3967534910036 521.135560079189 62 55 35
-5.24664855918255 54.6053949533731 521 53 58 47
-0.974862571036381 55.4884956141074 516 115 114 90
0.43144443096245 55.380959769894 515 119 116 88
1.82451934278296 55.3029911310361 516.336595505451 79 76 46
3.08268853835312 54.9477416127212 516.920152515228 89 86 58
4.3408577339234 54.5924920944064 517.503709525006 52 50 26
6.84455650729842 55.4458440885912 519.618699760742 31 29 9
8.10512221562212 55.0899179045272 520.203368307681 34 32 14
8.98516274181628 54.9146712460835 521.700440593818 40 38 20
10.2481249628934 54.5580683962703 522.286220677918 49 47 29
11.8253639764095 54.7102037728613 522 36 33 17
13.3852746723707 54.8607148744314 519.251045457142 37 36 14
17.0023246807154 55.1630027415473 518.617278297369 109 106 76
18.2509078252718 54.8104598862291 519.196389158501 113 110 80
18.9066094314376 54.6053949533731 521 109 105 71
20.3273893132388 54.6053949533731 521 111 107 73
22.0072729047294 55.3072836589808 521.892641528641 121 118 88
23.2578893803991 54.8150125923496 523 113 111 79
24.6841233116506 54.8150125923496 523 118 115 85
25.9409430132941 55.4214436669072 520.319147528344 126 125 97
27.4839399481992 54.7102037728613 522 121 118 88
28.852068604046 54.6053949533731 521 112 111 81
30.3309537612518 54.7102037728613 522 113 111 79
31.6279475791561 55.1983451594094 521.735639155876 112 107 77
33.7721031335775 54.6803324899846 523.817738994202 108 103 73
34.8003335295713 55.0246302313261 525 110 105 74
36.3700482588836 55.2342478703025 527 108 103 72
37.2943603150289 54.9753959086719 523.143094884015 116 113 83
37.8071902890357 55.2342478703025 527 107 100 69
39.3932671666989 55.443865509279 529 109 102 71
40.9056890992884 55.3994239958696 542.215715463981 107 100 70
42.4969870635415 54.85988272772 541.866430259354 94 88 61
42.8379096383447 54.7158419930183 536 119 114 84
44.7128373806781 55.2262509668338 541 117 114 84
46.0414318253015 55.1798385326944 541.199245183687 60 58 38
47.0055263202251 55.0006861468441 542.733500803503 68 68 50
49.0008932452849 54.5574104663681 563.368022073079 0 0 0
50.2281150130889 55.4989183382908 543.004643826998 71 71 53
51.585373134086 55.4992759754905 547.981508713878 90 88 68
-37.9973777520122 56.1337106793877 522 49 52 40
-36.2235464121 55.5960314583207 517 72 76 68
-29.703755757873 56.084002337798 518.884759621189 84 79 59
-25.8571801413668 56.4149540928316 518.348954091957 60 53 33
-23.6976340123283 55.6927133224704 517.169699779822 51 47 31
-21.8680607465397 56.3443260275902 511 55 57 49
-20.4745511119899 56.3443260275902 511 60 60 50
-19.4635544110943 56.015405352281 518.995536898341 62 58 41
-18.6038387940779 55.8317351809988 520.484469419097 57 53 36
-15.2294748098604 56.3380973820916 520.82137401686 71 64 43
-10.8458543198891 55.5960314583207 517 52 51 37
-9.43598253698852 55.5960314583207 517 46 45 29
-8.05715953843642 55.8111031467475 519 50 47 31
-6.65463107353463 55.9186389909609 520 61 58 42
-5.26678924463046 56.2412465236011 523 61 59 41
-3.82586867738136 56.0261748351743 521 70 68 48
-2.59737193821493 55.5374872920757 522.046698583137 123 120 92
1.8429917262163 55.5960314583207 517 112 108 83
3.25915531474383 55.7035673025341 518 106 102 78
4.68979178307371 55.9186389909609 520 68 65 45
5.58399079897472 55.8017702726552 519.034031213802 47 44 23
6.11959049522696 56.0261748351743 521 43 41 23
7.51142461742343 55.8111031467475 519 41 38 22
7.98716164846172 56.4609645134328 517.835962181248 57 55 37
8.86072250037617 56.2903798868532 519.32977165695 59 57 39
10.6222232807259 55.9451506391991 522.324059831324 38 36 18
11.8253639764095 56.1337106793877 522 44 41 25
13.2234899042329 56.0261748351743 521 40 38 20
14.1308459629415 56.0526787155387 518.373826990726 35 33 9
15.3818256202513 55.6994591944714 518.95404938902 96 94 69
15.9725445833756 55.7035673025341 518 109 106 78
17.4187054438797 55.8111031467475 519 109 104 74
18.8703203538341 55.9186389909609 520 105 101 67
20.3946732465064 55.844342149274 522.232819032826 113 110 80
21.74816919504 56.0261748351743 521 111 106 75
23.3023595321781 56.3487823678145 524 115 113 81
23.9849186713936 56.1428685354153 521.587649297238 121 120 92
26.1103572429021 56.2412465236011 523 120 117 87
27.0153838886635 56.4133235504804 518.508656041224 121 120 92
28.9556094260818 55.6906946072343 517.23334144726 123 122 94
29.841595784933 55.5279314561244 518.731884275809 120 117 89
31.8761252680379 56.3487823678145 524 114 112 80
33.5773690344014 56.0249044856363 521.419100746557 111 108 78
34.4784443337541 55.8607133746478 522.924384599125 115 112 82
38.2403123026994 56.3588158505177 525.622931844639 124 119 89
39.1564765425535 56.1931967796508 527.134956721226 123 118 88
40.913057694782 55.5486743287673 530 116 111 80
42.7579881651388 56.0727184262085 535 120 115 85
42.8746347012775 56.2601251437316 541.90462841801 70 67 39
44.611536445186 56.2519149869145 586.488532346607 0 0 0
46.4442843249507 55.5324963511231 544 121 118 90
47.3824640939803 56.3982965282391 542.77162716111 78 76 58
48.3520614783914 56.220422845507 544.308177656299 64 64 46
49.0989303827996 56.1778179375766 564.359250996788 123 120 99
-40.3271118920681 57.4241408099483 534 148 149 137
-37.5767124746218 57.1820479498352 524.099839472026 152 149 143
-34.8810124911514 57.1161661101599 518 50 52 42
-33.274581171845 56.7853775033443 515 86 86 76
-32.3340937912388 56.9869176234515 520.936867662419 114 101 72
-31.7463958133912 56.5648517654672 513 86 86 76
-30.4065889171678 56.6751146344058 514 66 66 56
-29.1177577345455 56.8956403722828 516 67 69 59
-27.6569102380438 56.7853775033443 515 65 67 59
-26.2524925045934 56.7853775033443 515 60 64 56
-24.7998260822671 56.6751146344058 514 50 54 46
-23.3526137093911 56.5648517654672 513 39 41 33
-22.0326160828111 56.7407910353924 517.803969061233 93 86 66
-21.1776934913017 56.5584741956086 519.290678507666 73 67 50
-19.1930632473665 56.6751146344058 514 52 52 42
-17.8259861038916 56.7853775033443 515 52 50 39
-16.5140056457188 56.7007902236473 520.225590098306 61 54 31
-15.017150636991 56.7853775033443 515 50 47 33
-13.6127329035407 56.7853775033443 515 47 44 28
-12.2799260444849 57.023482253458 522.051427216825 94 81 57
-10.8458543198891 57.0059032412213 517 55 51 34
-9.45423395388792 57.1161661101599 518 59 55 38
-7.5683426571369 57.3464923379726 526.277560859186 72 63 40
-5.87790178365293 56.8016173825379 525.972200012257 68 64 39
-2.39585620903284 57.2264289790984 519 99 95 70
-1.42370302970988 56.5721614055912 520.275794385759 104 101 71
-0.972973302487861 56.7853775033443 515 114 111 83
0.43144443096245 56.7853775033443 515 105 102 72
1.8429917262163 57.0059032412213 517 88 85 57
3.26544712037074 57.2264289790984 519 81 78 50
4.68979178307371 57.3366918480369 520 57 55 31
5.47561628282818 57.1701102185641 516.671071236015 77 75 51
6.11959049522696 57.4469547169755 521 32 29 8
7.51142461742343 57.2264289790984 519 32 29 9
8.92675044977433 57.2264289790984 519 32 30 12
10.3420762821252 57.2264289790984 519 34 32 14
11.6288866483218 56.7591177576734 517.21338219414 81 79 59
12.503157364217 56.5911651657105 518.707263470893 68 66 46
13.2234899042329 57.4469547169755 521 33 30 10
14.5880537791779 57.2264289790984 519 42 40 15
14.8749975255509 57.239378487413 517.496464922211 53 51 26
16.034214639682 57.3366918480369 520 110 107 79
17.3721638146636 56.5342927767767 518.654686644474 110 107 77
17.8879209063798 56.552134522907 521.070151161917 111 106 75
18.9066094314376 57.4469547169755 521 109 103 69
20.765932108416 57.2208962537365 522.270370982032 109 106 76
21.6607946543004 57.0527944050133 523.773288158177 117 114 84
24.3547578053418 57.5141585706447 521.625057644344 120 119 91
28.6213806602314 57.4242492549222 519.120441896614 123 120 92
29.1653620633665 57.4511165512601 521.547452591972 109 106 78
30.4091521824159 57.0999270274403 522.124340378781 99 96 68
31.9956571211622 56.5617390907891 521.772832099831 110 109 81
33.9443687124268 57.3856663823994 521.456221889462 103 102 74
34.8666198791514 56.5638540562412 526 107 105 73
36.3010348845783 56.5638540562412 526 111 106 75
37.3289410883521 56.5230815898862 524.113130042375 121 118 88
37.8071902890357 56.6713899004546 527 114 109 78
39.6886654752257 57.3458250807622 542.601119355042 115 106 73
41.2840466010051 56.8022984464977 542.253985423688 92 85 55
42.6780666919329 57.4241408099483 534 121 116 86
42.9221379085106 57.4658962618314 538.529189076852 100 93 62
44.5024300937885 56.9237975874454 538.175314121479 79 76 48
45.1475079757385 56.9334497265336 540.648185044658 89 87 63
46.1099158218892 56.757606041049 542.181400928363 80 78 58
47.6634781332863 56.7015713431379 541 110 109 87
48.3686769406409 57.4264178487471 540.919184466053 109 109 91
49.3204576538033 56.9111889821144 543 114 112 94
50.2248274144434 56.7464989691628 557.132003257909 106 104 84
51.2040319447547 56.527114287179 541.147683182245 113 113 95
-50.1237552110195 58.5186133947883 540.3919238124 182 186 186
-43.1917703906433 57.8544683575085 552 123 126 122
-36.7140006188402 57.7777433237911 524 74 77 63
-33.4038028462988 58.4157750241219 517 100 93 72
-31.808279625893 58.0768053431309 514 84 77 56
-30.4657457049444 58.1897952367946 515 82 75 55
-29.3460247994497 57.6812534166454 522.182984989995 98 88 63
-29.1177577345455 58.3027851304583 516 88 82 65
-27.7106129763701 58.3027851304583 516 63 60 44
-26.2015167909923 58.0768053431309 514 59 56 40
-24.7033287045151 57.8508255558036 512 51 48 32
-23.2615703810894 57.7378356621399 511 50 46 29
-21.8680607465397 57.7378356621399 511 59 53 36
-20.5947539560916 58.0768053431309 514 64 58 41
-19.3050850172927 58.4157750241219 517 61 53 36
-19.0708525461611 57.6084471798733 522.309467389508 86 78 53
-16.5233975776963 58.4806015686026 524.441920494217 82 74 49
-14.3968687855837 57.750688579532 523.248896929844 80 67 43
-10.2042050518352 57.8880245210028 521.786774807076 80 68 39
-6.68022580843284 57.557217585914 522 75 69 52
-5.29700027280234 57.9982690616681 526 61 56 36
-5.09629767787541 58.0315591546351 525.107317535308 79 74 44
-3.84055531337898 57.6674804548525 523 51 49 25
-1.04747511993534 57.9671397523697 520.313848942315 126 121 91
0.433119943315702 58.4157750241219 517 87 84 54
1.8429917262163 58.4157750241219 517 97 94 64
3.43624783617906 57.8980728490954 517.90246147228 129 126 98
4.66273529201751 58.4157750241219 517 47 43 18
7.46800597801636 58.3027851304583 516 73 68 47
7.87594767639231 57.8187763208754 515.47271499926 164 161 140
8.89235064071932 58.4157750241219 517 72 69 48
10.2822954943673 58.3027851304583 516 61 58 37
11.7120942065205 58.4157750241219 517 68 65 44
11.9994356462507 58.1330398275194 517.250862342295 129 125 101
13.2504153035605 57.7798203064521 517.831084740589 102 98 74
16.8639159920018 58.068948000485 517.196958575566 124 119 89
18.6248829307288 57.7408642920287 520.189454481917 115 110 79
19.1492492886668 57.7619401101446 522.608397212944 104 99 69
21.8316554491477 57.6674804548525 523 108 101 70
23.3468296839571 57.8880061927296 525 110 105 74
24.7313204881547 57.7777433237911 524 117 114 84
25.4339917062182 58.5046851227196 519.816789231546 119 117 92
26.0604330416728 57.557217585914 522 117 114 84
27.3823835666889 57.7740854472437 518.545777184128 119 118 90
28.9628251054051 57.6674804548525 523 117 116 86
30.3890590366565 57.6674804548525 523 103 102 72
30.7775715884027 58.4659529934366 522.161605123786 106 105 77
31.8761252680379 57.7777433237911 524 102 102 70
33.3686455488695 57.8880061927296 525 107 105 73
34.9329062287315 58.1085319306067 527 105 102 72
36.3700482588836 58.1085319306067 527 111 108 78
37.0332325489152 58.2655871594016 526.01629461934 119 118 90
37.8071902890357 58.1085319306067 527 115 110 80
39.1491949320185 58.1476176997962 532.431894731199 124 119 89
41.0197227335251 58.1948440922885 539.820495997377 110 105 67
44.7299836157832 57.928873888189 587.483563967741 99 94 73
45.523735885513 58.3284280733121 540.686239601214 98 96 78
46.6563506203893 58.0773211880929 577.358578332305 126 123 102
46.7938876448506 57.9697952262514 541.275354296799 96 96 78
48.3254822765381 58.337646982014 568.206269367348 118 116 92
49.4112872259098 58.4994992520822 544 97 95 77
50.4891830725896 57.8149717979693 552.768503849522 108 107 85
51.5496848542105 57.7496595380203 551 109 111 94
-38.6525049546331 58.5495834063608 531 132 133 119
-35.0830260770075 58.8677345987767 521 80 77 57
-32.4165339129703 58.7731921020499 525.120604475397 112 104 79
-27.6592622327933 58.7430187116394 522.825537638887 75 64 41
-23.398135373542 59.4784960518561 514 85 78 58
-21.9964446648168 59.4784960518561 514 84 75 54
-19.5350268423214 59.395687317214 524.13475256412 85 75 48
-17.8175144645686 58.846001073155 523.841690427017 80 72 47
-16.5491145325418 58.6417548114493 519 61 54 34
-15.1337887001909 58.6417548114493 519 64 55 34
-13.71846286784 58.6417548114493 519 67 58 37
-12.3268425018388 58.754744705113 520 74 65 42
-10.2344210213089 59.482330520858 522.724181861092 89 80 50
-9.50898820458611 58.8677345987767 521 81 68 45
-8.94989018545047 59.1196376793023 523.319965779646 81 72 42
-8.07055952323705 58.9417589862421 524.816966264733 83 74 44
-6.70582054333105 59.2067042797677 524 72 63 42
-3.86258526737542 59.4326840670951 526 56 48 23
-2.40970508885384 58.9807244924403 522 82 76 49
-0.978641108133421 58.5287649177856 518 96 91 61
1.38729333851609 58.6287421426234 519.129405559899 123 120 90
3.25915531474383 58.5287649177856 518 109 106 78
3.8096362900308 59.2825230574076 517.940228824636 117 114 86
5.84758500871848 58.5492963576431 516.708694986271 151 149 124
9.11428771593671 59.0294078306225 517.000813613734 164 162 138
10.367663886 58.675511643806 517.582147549189 165 163 139
13.2456750880362 59.3442733746355 518.782367369304 122 118 93
14.5880537791779 58.6417548114493 519 44 41 13
15.2448366594991 58.6106685226424 517.533873269316 119 114 84
16.0958846959885 58.9807244924403 522 116 111 81
17.7444522713479 59.4680058829419 519.646712231779 121 116 86
18.2654453317404 59.4956991017894 522.063575490584 115 110 79
18.9791875866447 59.093714386104 523 112 106 72
20.4167904244221 58.9756564351171 524.149009940395 112 109 79
21.8733985762015 59.2067042797677 524 110 104 70
23.4760137947337 59.2379914611923 521.083355130317 116 115 87
24.7313204881547 59.2067042797677 524 113 110 80
26.1103572429021 59.093714386104 523 114 111 81
27.5365911741536 59.093714386104 523 114 111 81
28.2899913503039 59.1683320410762 521.007829550169 110 109 81
29.5337814693533 58.8171425172564 521.584717336977 102 101 73
30.5633748628706 59.4326840670951 526 103 100 70
32.7310762051744 59.2885269535486 521.847217987741 105 105 79
34.3113683904521 58.7464282791626 521.493343032367 111 111 83
34.8773613515378 58.7784103879734 523.929533229218 114 114 86
38.7879950305716 59.1126710760643 542.045900271568 124 116 81
41.0674465917434 58.6598462752993 532 125 120 90
42.7579881651388 58.9906348821149 535 124 118 91
42.9834323668379 59.0456937674335 539.508010210044 86 84 52
44.5475403848161 59.4316863578691 539 122 116 89
46.2842763262734 58.7407611826117 583.708573083358 126 122 97
48.4402673139627 59.0061407259691 541.902523548941 118 118 100
49.1869198306268 59.1492760518201 580.561026286813 103 97 72
51.0637700551294 58.6716284560372 547.464631391161 117 115 95
-43.9742299991694 60.4351444479231 562 129 132 129
-40.7893076078994 60.0686049879685 531.19430347538 174 175 171
-36.9942601655489 59.6586638544224 528 66 64 44
-35.9509123133692 60.0523480750981 528.933516167367 99 96 82
-33.6622461952063 60.2885144805779 521 104 96 69
-32.1176986884016 60.0570806438002 519 111 99 70
-31.15654013474 60.0258615372819 526.654369856368 94 84 57
-29.2870470236998 60.0570806438002 519 98 87 66
-27.8180184530227 59.9413637254114 518 74 67 47
-26.4061910720121 59.9891453745199 524.356864542385 86 74 45
-24.8963234600191 59.7099298886337 516 59 53 36
-22.9844306743478 60.4991197998272 524.714207615355 91 79 50
-20.8315402419471 59.7617634875156 523.533410959758 81 72 42
-19.4917879671698 60.4042313989667 522 82 71 48
-18.3056191749592 60.4457804965283 522.386868921523 88 84 59
-18.1028946258938 60.5199483173555 523 81 70 47
-17.0138988008405 60.0810576577251 522.985987451561 87 84 56
-16.1400710281147 59.9019002615467 524.480693061275 93 87 60
-15.1921077317909 60.2885144805779 521 70 60 35
-13.7977603410645 60.4042313989667 522 74 64 39
-12.3979589008879 60.5199483173555 523 72 59 35
-10.9717249696364 60.5199483173555 523 75 63 36
-9.5454910383849 60.5199483173555 523 74 62 35
-5.31714095825026 59.6586638544224 528 65 56 33
-5.1155078683739 59.6284225607267 526.049314340071 96 91 61
-2.40970508885384 60.4042313989667 522 82 77 47
-1.86101993243014 59.9262627605915 523.065987839224 127 122 92
-0.978641108133421 59.9413637254114 518 110 105 75
0.433957699492328 59.9413637254114 518 115 112 82
1.76210152032922 60.0184564201688 519.167316514355 116 113 83
1.84655650711808 59.9413637254114 518 111 108 78
3.25915531474383 59.9413637254114 518 113 110 80
4.65371646166545 59.7099298886337 516 94 91 61
5.44359045220622 60.3110470816558 518.562664723931 120 119 91
6.08435292999532 59.9413637254114 518 118 115 87
7.47532641742561 59.5739096441566 517.328764209143 147 145 120
8.89235064071932 59.8256468070226 517 94 91 63
10.2822954943673 59.7099298886337 516 97 94 66
11.7120942065205 59.8256468070226 517 106 100 73
11.9922989179729 59.698169561452 518.201033433849 152 148 123
13.1473469681241 59.9413637254114 518 98 92 65
14.616161782606 60.172797562189 520 107 102 72
14.8703101200091 60.3669312922815 519.401253253964 114 109 79
16.493472614038 59.8212254040093 519.066489833486 112 107 77
19.8931867404474 60.5203123883028 522.683644713456 108 105 75
21.5084498322352 59.9740044626615 522.345474880443 103 102 72
24.2022369609188 60.4155910544787 520.198964833583 107 107 79
25.4484235927217 60.0637248649097 520.776964157553 114 114 88
26.0604330416728 60.4042313989667 522 114 111 81
27.5365911741536 60.5199483173555 523 109 106 76
30.8022993899008 60.0249181072465 523.126297999489 95 94 70
33.4957641985795 59.5456739607587 527 111 108 78
34.0019906384752 60.4956258777895 523.389910187414 107 107 81
34.9991925783117 59.6586638544224 528 108 105 75
36.4390616331889 59.6586638544224 528 109 106 76
37.6627404587236 59.8569125342511 529.434137953516 117 116 86
38.5899104775531 59.6938508696207 530.950752580849 124 121 91
38.8742542449287 59.9097515863656 534.342374740585 125 120 89
41.2218354887048 60.3366032164045 534 116 111 81
44.6137151705557 59.6803392019848 535.782424051657 70 68 44
45.5912430973088 59.9121363166489 541.667427410829 67 65 47
46.2735332796384 59.7624749646847 542 58 54 30
47.0560040415272 59.559156677218 577.399002323515 125 123 99
47.832890124918 59.5315922001018 579.933007790576 115 111 86
49.3204576538033 59.8727378336232 543 52 50 32
49.9887748938163 59.787648162487 555.656612043613 116 115 93
51.2864065097548 59.5644483779724 574.869863715413 95 87 60
51.784039912189 59.7201258430411 578.36041268252 65 58 35
52.8126567057327 60.3106094353611 571.088559855082 60 51 21
53.8627587389697 60.1156698521395 572.661934678701 81 71 44
-48.8627433871119 61.4813983530041 542.866255493593 148 153 150
-39.0164645116447 60.5625830037319 536 134 134 116
-35.3523775248156 60.7513821541332 525 87 81 56
-29.0181577657842 60.9123656429768 526.415176478873 97 85 56
-26.4563953589981 61.4724064761511 519 73 61 34
-24.7163221286216 61.0528660383813 525.000600529489 93 81 52
-20.4475038283847 61.1856942150763 523.572255327866 86 82 58
-16.2117028650739 61.3108501730621 522.130140874004 113 111 86
-14.4626275916608 60.9577994499384 525.119695695532 103 98 68
-10.6725005979925 61.2707001045567 524.560797810469 99 94 64
-9.38317673662712 60.9066539315027 525.158804803346 94 89 59
-8.498343184926 60.7300539415608 526.658100163806 87 82 52
-8.13478149930767 60.6356652357443 524 78 66 39
-6.71861791078015 60.7513821541332 525 83 71 44
-5.31714095825026 61.0985329092996 528 76 67 37
-5.133298330911 61.2305500360515 526.991454746934 102 97 67
-3.86992858537423 60.9828159909108 527 64 55 25
-1.48266243071342 61.3291372112197 523.10425779893 126 124 92
-0.980530376681941 61.4724064761511 519 120 115 85
3.26544712037074 61.4724064761511 519 104 101 71
4.67175412236958 61.3539625330371 518 111 108 78
6.09609878507254 61.4724064761511 519 133 130 100
7.49695173762107 61.3539625330371 518 125 122 92
7.9556315709917 61.176205917425 520.68023703924 105 103 78
8.90955054524682 61.3539625330371 518 129 126 96
10.2822954943673 61.1170746468092 516 131 126 96
11.7574021144761 61.4724064761511 519 123 118 88
12.4931959015282 61.3003165779602 521.561542163339 118 114 89
16.157554752295 60.6356652357443 524 107 100 70
17.62007776115 60.7513821541332 525 115 108 78
18.6374140576307 60.8748852408685 522.101199240839 116 113 83
19.0154766642482 60.6356652357443 524 112 103 70
21.8797086941449 61.3505585671241 522.383026829649 103 102 72
23.3468296839571 60.7513821541332 525 115 108 78
26.3619772089936 61.4704549660758 523.240487066005 108 107 83
27.2644722363077 61.3115279243206 524.745914520673 98 97 73
28.8639365236132 60.7640159239412 524.400931862592 92 90 66
30.5633748628706 60.867099072522 526 96 95 65
32.7582005194257 60.8468154016093 522.813022400605 105 104 80
33.4322048737245 60.867099072522 526 96 95 65
34.8666198791514 60.867099072522 526 106 103 73
36.4390616331889 61.0985329092996 528 104 101 71
38.3618921206399 61.0393234161618 528.537448946955 113 112 82
38.9252527882616 61.4896237203479 535.316677924081 109 104 73
42.4054187535142 60.6085450674667 538.017151429441 88 83 53
42.9178311115505 60.6755728973955 537 114 111 83
44.6301888827471 61.0145425783866 540 109 105 80
45.6268546392279 61.0929404200814 538.289046984847 51 49 29
46.2761917050622 61.118384766869 540.762348714327 53 53 35
47.575375585905 61.0145425783866 540 70 69 47
48.3682337191495 61.2608276895783 565.768205317027 125 124 102
49.047968937484 61.0145425783866 540 91 89 69
50.6283254162259 61.2320486433512 573.334402604481 99 92 62
51.4561282573789 60.6445779161929 550 64 62 44
54.333227989865 61.0357142158173 567.306681586351 81 69 40
55.3744538360689 60.8461133302089 568.875682062373 97 84 60
56.4204727077796 60.6551591131022 570.446905612719 104 93 70
-41.6864527423626 62.3704213023507 552 143 141 130
-39.307632157254 62.4871359299655 540 132 132 114
-37.2745197122576 61.5614005828549 532 130 128 108
-35.560964780454 61.6829896814516 532.242822386378 106 99 76
-33.9853003813407 62.3015140779489 526 106 95 62
-32.4890015634121 62.1830701348349 525 96 85 52
-30.9390000071571 61.946182248607 523 90 79 46
-29.3999065498027 61.709294362379 521 106 93 64
-28.18493277598 62.3559392184468 528.840154591924 99 87 58
-23.6712653584471 61.5908504192651 520 80 68 41
-22.2960071407968 61.709294362379 521 80 68 39
-20.9553624883967 61.946182248607 523 80 68 39
-19.5664691471207 62.064626191721 524 77 65 36
-18.3449782522775 62.0539979635957 523.319005493932 112 111 89
-18.1375081911441 62.064626191721 524 86 74 45
-16.7085472351674 62.064626191721 524 83 71 44
-15.2504267633908 61.946182248607 523 88 76 49
-13.8506253232142 62.064626191721 524 86 76 49
-12.4216643672376 62.064626191721 524 80 70 43
-10.9927034112609 62.064626191721 524 82 70 43
-9.5637424552843 62.064626191721 524 79 67 40
-8.51950694500863 62.338798817617 527.598161098446 98 97 67
-8.02815792399647 62.3522024170236 530.003334577235 98 96 64
-2.4143213821275 61.946182248607 523 101 96 66
0.43563321184558 61.5908504192651 520 114 111 81
1.35136036872592 61.7934419456443 521.017127307569 113 112 82
1.85368606892162 61.5908504192651 520 108 105 75
5.9229188209803 61.9192840899065 521.913169618967 112 111 83
10.4786784687525 62.0439221594306 522.802399105296 109 105 81
13.19810892553 61.5908504192651 520 113 107 80
14.1271500637037 62.3288406022084 522.183978062634 121 117 92
16.1883897804482 62.1830701348349 525 99 92 62
17.6536398140284 62.3015140779489 526 107 100 70
18.6458092130237 62.449791819138 523.057287023451 110 107 77
19.0517657418518 62.1830701348349 525 110 103 72
20.4054215178962 61.946182248607 523 103 97 63
21.8316554491477 61.946182248607 523 101 94 64
23.3468296839571 62.1830701348349 525 107 100 70
24.7313204881547 62.064626191721 524 102 99 71
25.1109975516837 61.8236744871432 522.660264667712 121 119 94
26.1602814441314 62.064626191721 524 104 101 73
27.6418936260624 62.1830701348349 525 99 97 72
29.1843381081233 62.4199580210629 527 94 92 68
30.6214801382753 62.4199580210629 527 94 92 68
31.9977898682976 62.3015140779489 526 99 97 73
33.4322048737245 62.3015140779489 526 104 102 78
34.370410044462 61.8616518437858 523.427174932419 98 97 73
34.9440354869774 61.9028087595645 525.865875407793 91 90 66
35.8599328060202 61.7457624582965 527.377004150369 102 102 74
36.78062315057 61.5873628255301 528.890355967267 106 105 77
39.6586343526062 62.2561245563597 530.090575787382 116 111 81
39.8644365109592 61.7322474869986 541.183896688669 117 111 77
41.2990299371856 61.9085513380214 535 112 107 77
42.4657364270495 62.1942833080511 538.995004627572 82 79 51
42.9178311115505 62.1399851747991 537 108 105 77
44.5475403848161 62.3714190115767 539 109 105 80
45.6725860737835 62.2538923213194 534.916904975533 79 77 57
45.9320311890137 62.2557020931879 538 98 95 74
46.9307552693538 61.8986428030046 535.500461985311 101 101 83
48.4296150501983 62.1575478458363 575.573576130911 131 127 102
49.19899414145 61.963418671384 559.495025321081 110 108 88
50.1627634610924 61.6294285410094 543.514358824282 68 66 48
51.2690150637157 61.918461727696 548 90 88 70
52.1606123433142 61.9623428646604 569.557185887545 96 89 59
55.286241702693 62.1128640044422 565.435236437089 88 79 49
56.6019272043465 61.7413745081473 566.045470338742 116 106 81
57.6414664017776 61.5550823229047 567.613431078653 115 104 81
-39.5549532838469 63.1651551498426 536.931457091216 139 144 130
-37.414649485612 63.2490656228607 534 124 123 101
-35.6217289726237 62.6568459072908 529 105 100 70
-30.8067524415773 63.2904389194992 530.893124245755 109 98 67
-28.1402348829804 63.4935871476976 524 89 77 48
-26.6602982134027 63.3724161798585 523 90 78 49
-25.2340642821512 63.3724161798585 523 87 75 46
-23.8533520150506 63.4935871476976 524 87 75 46
-22.3815964196482 63.3724161798585 523 89 77 48
-20.9122119661677 62.9900798916148 525.395748234455 102 100 80
-19.5291285571453 63.3724161798585 523 83 74 44
-18.1028946258938 63.3724161798585 523 84 75 45
-16.7085472351674 63.4935871476976 524 87 81 54
-15.2504267633908 63.3724161798585 523 85 79 52
-14.9569450555199 62.553668135577 523.662507513614 112 111 87
-13.8506253232142 63.4935871476976 524 80 76 51
-12.3979589008879 63.3724161798585 523 82 78 53
-11.9908876216813 63.242889116298 524.899445339698 108 109 87
-10.9927034112609 63.4935871476976 524 85 81 56
-6.75701001312747 62.5384019641768 528 85 73 46
-5.34735198642213 62.8937337935188 531 83 71 44
-5.14966906548656 62.8379415806093 527.933738755897 101 96 65
-3.87727190337305 62.5384019641768 528 62 53 23
-2.40970508885384 63.2512452120193 522 101 95 68
-0.980530376681941 62.887732308502 519 117 114 84
0.43563321184558 63.0089032763411 520 115 112 82
1.86081563072517 63.2512452120193 522 101 98 68
2.99774003783804 62.8297874453621 521.644296559711 124 123 93
3.88062001995502 62.6650689253847 523.141656050048 124 123 93
6.14308220538138 63.3724161798585 523 104 101 71
7.56931613663286 63.3724161798585 523 94 91 61
8.4545749849629 62.7902344038978 524.038809898607 98 94 70
8.97835016335684 63.2512452120193 522 92 88 63
10.4018570698832 63.2512452120193 522 91 87 62
11.3711064134126 63.4679470565548 525.255093846334 100 96 72
11.8706718843651 63.4935871476976 524 101 95 70
15.7611042258791 63.3573646264566 522.806413961929 98 95 67
17.7536101007043 62.6086442325133 521.556377518479 110 107 77
20.276656998465 63.4763604745189 523.678539584535 101 99 67
22.2509675560545 62.7271126715866 522.420578778854 104 103 73
26.5924068001721 63.2788555705688 527.559297042154 80 79 57
28.543729015019 62.530433690146 526.29118879992 104 102 82
32.1069938340907 62.8054210214985 525.636336955489 74 72 52
34.7340471799911 63.4935871476976 524 90 88 64
35.6482470952119 63.0752935403781 524.972305609566 92 90 70
35.8985058424163 63.3178131168091 528.346573981018 98 97 73
36.8223025637003 63.1613688529102 529.861109136128 103 101 76
38.4052581825429 62.6100207431762 529.509241851927 109 108 80
39.6224508805936 62.6839160722231 534.418053047397 114 109 78
40.5603908976878 62.9410533434551 540.283407742912 106 99 68
41.3762243856663 63.4859535090886 536 113 108 78
43.1564548451019 63.3932376917905 538.093116940454 76 74 49
46.9944462404346 63.4777636428575 536.480394655664 100 102 84
48.5616030547951 62.9252114583854 536.121714546394 109 111 93
49.515577657082 62.7659112747295 537.649731749543 99 101 83
49.9736176202426 62.8930315079985 571.801020965771 111 105 78
51.1754584668841 63.2971543586873 547 97 95 77
53.4374099639931 62.7093909833417 555 94 94 76
54.1777687396019 62.6455148927361 583.525551129823 104 93 70
55.9561864938497 63.3686683317682 564.519079648612 108 98 71
57.2694754827496 62.9978555012224 565.128202013103 129 119 94
58.5827644716497 62.6270426706766 565.737324377595 127 116 93
-45.5877908802794 63.6133101326512 563 177 178 172
-45.0209799812351 64.3386066241867 556 138 137 131
-44.0524759600221 63.6133101326512 563 169 168 162
-41.913009550745 64.2228897057979 555 140 140 130
-39.526007891461 64.3150611108864 543 137 137 119
-36.4896331035686 63.7029429890469 534.938990898552 117 115 97
-35.7564046965278 64.3417839225714 531 117 112 82
-34.1145220557945 63.9782710190541 528 115 106 73
-32.6127691884155 63.8571000512149 527 108 99 66
-31.1164703704869 63.7359290833758 526 102 91 58
-29.6256256020085 63.6147581155367 525 94 83 52
-28.2274891284858 63.9905516600599 529.768491225139 90 84 57
-24.8023207199718 64.2996813131765 526.85892246184 60 57 36
-23.4938247565788 63.930221814129 527.465821752009 62 60 40
-18.3829176016344 63.6674794998961 524.251285668442 109 108 92
-13.6959744924975 63.8003968358266 525.197240829647 73 73 53
-10.2412314712118 64.5122708513022 528.837344463347 74 74 46
-9.5819938721837 63.6147581155367 525 87 82 52
-8.18135467583043 63.8571000512149 527 85 80 50
-6.79540211547478 64.3417839225714 531 82 74 47
-4.76705237988566 64.2566082389368 527.972439521905 90 87 57
-3.88461522137186 64.0994419868932 529 61 54 24
-1.12040874276099 64.3308304368069 524.085707901611 106 105 75
0.943458673045399 63.5789556095861 522.867225304984 111 110 82
3.48443396723053 64.4557720301796 524.996415599259 49 47 22
4.76177526482849 64.0951091858714 525.588864906328 99 98 70
6.03911656242647 63.7344463415631 526.181314213398 102 100 75
9.34842265758439 64.2195233702551 526.491648241745 57 53 29
13.3250138190447 63.6147581155367 525 104 98 73
14.7848098031745 63.7359290833758 526 102 96 69
16.2192248086014 63.7359290833758 526 113 108 78
17.6872018669067 63.8571000512149 527 106 99 69
18.6556240963782 64.0299624666407 524.013518408163 108 106 74
19.1243438970588 63.8571000512149 527 105 98 67
20.4834537225535 63.6147581155367 525 101 94 63
21.9151417032553 63.6147581155367 525 103 96 66
23.3468296839571 63.6147581155367 525 100 95 65
23.8756025880274 63.7497705892326 523.039464663515 50 49 21
24.7785176646588 63.6147581155367 525 110 106 81
26.3100540478191 63.8571000512149 527 107 105 81
27.7998473039256 63.9782710190541 528 92 89 68
29.2397163588028 63.9782710190541 528 77 75 55
30.67958541368 63.9782710190541 528 45 43 23
31.9977898682976 63.7359290833758 526 17 16 0
33.4957641985795 63.8571000512149 527 54 53 31
36.601030801878 64.4936065979884 527.45196444668 108 106 82
37.5231408743893 64.3404710344552 528.965459865678 95 93 68
38.0224114861269 64.2206129547323 530 100 97 69
39.6748691518879 64.2690522754385 535.392499832993 114 107 76
40.9380385354238 64.3412957594667 540.321605901569 98 93 63
42.9977525847564 63.7228413953166 538 113 110 82
44.6301888827471 63.9597292815445 540 102 100 75
45.7338805321109 63.8336898269215 535.895726108725 69 69 49
46.0174067116699 63.8412853384305 539 76 74 50
47.4872730385237 63.8412853384305 539 87 85 65
48.7078141944259 63.970311485917 562.384066928823 91 88 67
48.9342816446661 64.307029632081 536.1594100977 101 103 85
50.1924508402363 63.9517801137662 536.742967107478 121 121 103
51.226208923205 63.7953628672772 568.981172081844 100 93 63
52.7595635335386 64.4913660101909 565.207539900953 96 89 59
53.3411263424363 64.1071727874091 554 101 101 83
54.6428975049497 63.739481162314 563.90995728412 91 82 52
56.6195743306912 64.5020619991674 577.853368859725 127 117 98
57.9356040331913 64.2490724250644 564.210790085365 120 111 90
58.971769933077 64.0693976405532 565.776671353053 126 116 97
-48.934937231417 65.0120048046018 547.991492020444 195 200 197
-47.2905058211425 65.3800588896862 565 144 145 141
-44.697088038924 65.3810565989122 552 151 149 138
-43.1135244297907 65.2626126557982 551 148 149 137
-40.9298294182266 65.3899986932683 540.509049904167 218 218 210
-37.5547792589663 64.947638761767 536 116 115 93
-34.3185003184982 64.60569208305 534.712670639284 109 104 73
-32.6746530009173 65.4181400739313 528 116 110 76
-31.2842439055617 65.1239262335802 532.708371064504 105 99 72
-31.1756271582635 65.294242081367 527 106 100 66
-29.68205536506 65.1703440888027 526 102 95 64
-28.247640359633 65.1703440888027 526 89 82 52
-27.8370639390971 65.4381706991696 529.807981802698 80 76 52
-26.762249640605 65.0464460962385 525 80 72 45
-25.3305616599032 65.0464460962385 525 83 73 46
-23.8533520150506 64.9225481036742 524 79 71 44
-22.4243910590739 64.9225481036742 524 88 80 55
-21.3740806480279 64.8049937066196 527.219528345245 89 88 72
-20.9553624883967 64.7986501111099 523 89 83 58
-19.5291285571453 64.7986501111099 523 87 81 54
-18.1028946258938 64.7986501111099 523 91 88 60
-16.7085472351674 64.9225481036742 524 86 84 60
-15.8216173982715 64.5527194333281 526.388615728098 101 101 83
-13.8506253232142 64.9225481036742 524 89 87 63
-12.8390512959701 65.2457765234037 527.632438180301 79 79 59
-11.9480049908006 65.0730872711966 529.134100217184 69 68 44
-11.03466029451 65.1703440888027 526 85 83 58
-9.63674812288189 65.4181400739313 528 90 87 59
-5.38763335731797 64.8264677939279 535 77 70 40
-2.4143213821275 64.7986501111099 523 101 95 68
-0.984308913778982 64.5508541259814 521 119 116 88
0.437308724198832 64.6747521185457 522 98 95 67
1.86794519252871 64.9225481036742 524 87 84 56
3.29061434287842 64.7986501111099 523 114 111 81
4.72586710448196 64.9225481036742 524 112 109 79
6.1665739155358 65.0464460962385 525 94 91 63
7.69481536174112 64.7766579478831 526.812033480174 41 36 15
9.02994987693935 65.0464460962385 525 60 56 32
10.4616378576411 65.0464460962385 525 47 43 19
11.0010150801649 65.2597796077076 527.12118417031 37 32 11
11.9386337462985 65.294242081367 527 49 45 21
15.7668359477073 64.9415206400741 523.760494073367 82 79 51
16.2500598367547 65.294242081367 527 99 94 64
17.6872018669067 65.294242081367 527 98 93 63
19.0880548194553 65.1703440888027 526 104 99 68
20.5224698248822 65.1703440888027 526 89 84 53
21.5501439668773 64.7025603068249 525.220622854397 103 100 70
21.9151417032553 65.0464460962385 525 100 95 65
23.480240139294 65.4181400739313 528 93 90 62
24.246861449937 65.1263246936951 523.07701661272 44 40 15
24.7965217649178 65.1742482669657 525.504601716479 72 69 48
26.8476874052241 65.102899126001 531.887573723995 21 19 1
29.860315124523 65.3359036190653 528.804168840744 31 29 11
34.7711897333765 64.7958177305599 524.431642831651 59 57 39
35.3500511445683 64.8468261190558 526.871742048386 53 51 31
36.4390616331889 65.4181400739313 528 54 51 31
39.3438102167945 64.8986592325631 540.667987301013 118 111 81
41.453418834147 65.0688097296061 537 108 102 75
43.2181922465986 64.984240001608 539.071113740684 45 44 20
44.5475403848161 65.3111516652843 539 45 43 19
45.9320311890137 65.1899806974452 538 49 47 27
47.3991704911424 65.1899806974452 538 65 63 45
48.7460253858253 64.9245582515107 572.174057104186 119 116 88
49.2548867295275 64.8205746283939 557.068720093596 85 83 63
50.1151209433988 65.4411993951855 550.815904013577 100 99 77
51.0819018700525 64.6703929402283 546 89 87 69
53.1485590993229 65.3810565989122 552 107 105 87
54.0029266047519 65.3594809194542 562.386757603374 72 60 31
55.3138190808983 64.9893447546576 562.994768430704 119 107 80
56.345191955277 64.8110233016448 564.55842662407 132 122 97
58.6003128556717 65.4950252796733 563.293234555526 118 109 88
-41.8374906146175 65.6179444851401 554 144 145 131
-37.8542133229537 65.9277119040923 538.521101661198 105 102 86
-36.0257561443359 66.2854260218811 535 116 113 85
-34.2437437302483 65.6659360590598 530 119 112 81
-25.3305616599032 66.4781340769403 525 53 50 29
-23.5322979475583 65.5608488896272 528.396309658497 74 71 55
-22.4243910590739 66.3515090596508 524 82 80 60
-20.9954301030973 66.3515090596508 524 90 88 68
-19.6811053279031 65.8706697393482 527.86444767056 88 87 71
-18.0682810606435 66.098259025072 522 93 91 71
-16.6766606946423 66.2248840423614 523 88 86 68
-15.2795862791908 66.3515090596508 524 73 71 53
-13.8506253232142 66.3515090596508 524 85 85 65
-12.4453698335872 66.4781340769403 525 78 77 55
-10.6659996546198 66.3308715189015 530.677045099648 63 61 36
-9.76465743445576 66.1581076383142 532.183225086227 86 83 53
-8.24345224452743 65.7898340516241 531 93 88 58
-8.05859377884758 65.5946591838033 531.88639753134 97 92 61
-6.8337942178221 66.1615280293168 534 88 81 51
-5.17815135075367 66.0685168774244 529.818737580124 89 86 56
-3.89195853937067 65.6659360590598 530 65 58 28
-1.52884428006419 66.1334896399465 525.934013631004 93 92 70
-0.988087450876022 66.2248840423614 523 102 100 76
0.438146480375459 66.2248840423614 523 89 88 66
2.58545017134927 66.219309325116 524.442236251896 65 63 45
3.29690614850534 66.3515090596508 524 72 69 48
4.73488593483403 66.4781340769403 525 35 32 11
5.27429699288643 65.7307959866456 528.951418586631 34 31 10
6.1665739155358 66.4781340769403 525 38 33 12
9.35051416105577 65.818869554203 527.44275274695 45 40 19
13.4519187125594 65.6659360590598 530 81 77 53
14.8972418168869 65.6659360590598 530 93 89 64
17.4038964866169 65.9720000331898 524.384113310874 98 95 65
18.6668587076941 65.6153971833766 524.969893394975 99 97 65
19.0517657418518 66.4781340769403 525 91 86 55
20.6629667124054 66.4429366992011 524.673721659814 100 93 63
21.5668814676809 66.289273726679 526.179292716582 96 90 63
21.8733985762015 66.3515090596508 524 98 95 65
24.9673063706753 65.5420380664955 529 29 27 2
26.427369550359 66.2008169223464 526.125854277562 47 45 27
27.5678738402988 66.2963655553669 530.999096283864 29 26 10
27.85249852988 65.5420380664955 529 48 46 28
29.3504728601619 65.6659360590598 530 30 28 10
30.5745557269407 66.5168865410976 527.914220858201 33 31 13
30.8539012398941 65.7898340516241 531 24 21 5
32.2411190688169 65.6659360590598 530 27 24 8
33.7500014979994 65.7898340516241 531 33 31 13
35.3876473961722 66.4248175125507 527.840343943975 80 78 60
36.6410235662356 66.0709213257342 528.421677879429 82 79 58
37.8943997362989 65.7170251389177 529.003011814884 90 86 61
39.4310519904924 65.6133207472416 532.972383374029 116 109 79
39.9145391329879 66.4093240144454 536 84 77 54
41.6318633302105 65.5422055120735 539.420901552662 90 87 59
44.220561717006 65.9766422838421 537.228996605691 39 38 16
45.6759046210453 66.2854260218811 535 84 82 64
47.7412231481381 66.2466640594819 536.555929360376 56 60 42
48.5131054608019 65.8004305022363 564.323521463687 84 82 58
50.2918055030957 65.628382869894 568.405158276142 111 106 76
51.2398730213196 66.5115710226489 535.873682613568 98 96 78
51.8319067085204 66.3111512113447 564.635685039697 109 100 70
54.9584277287866 66.4076036989169 560.519040592257 102 90 61
55.9833209288855 66.2339442777682 562.079435975188 116 104 77
57.2918168922787 65.8644847787207 562.686335265357 117 106 83
59.086758682224 65.7048460253318 566.77396056992 128 121 101
-47.0394057902338 66.5654960300519 562 167 166 160
-44.5351420677685 66.6440323115146 550 139 137 126
-42.9570325080855 66.5228613436755 549 144 145 131
-41.8374906146175 67.1287161828711 554 135 136 122
-40.8557444449604 67.0288139772667 541 92 96 79
-39.9627593598749 66.5228613436755 549 121 123 106
-37.9051036923522 67.0288139772667 541 121 119 99
-35.2343001915066 66.6446716703302 537.412748171344 108 104 80
-34.3083545674751 67.2378841806767 531 113 106 75
-32.6746530009173 66.8580091288085 528 108 102 68
-31.7588959136231 66.9679416861274 534.523905087453 111 107 82
-31.1756271582635 66.7313841115191 527 101 95 61
-29.7949148911629 66.8580091288085 528 101 96 65
-28.3083426496131 67.2755687509853 531.625595297869 70 67 46
-26.9151767814084 66.8580091288085 528 73 69 44
-23.9947004710412 67.3929082438296 530.218297501264 73 71 53
-22.2560624216764 66.8259272038126 529.936063531576 77 76 60
-17.097083702609 66.7636565198697 530.011029032758 86 86 68
-13.6829557863745 67.264456138209 530.365861827205 77 77 57
-11.9697025925059 66.6989776864506 530.072368883802 77 76 54
-11.0975956193836 66.9846341460979 529 69 68 44
-9.69150237358008 67.2378841806767 531 73 73 47
-8.25897663670169 67.3645091979661 532 86 83 55
-7.67242777334314 67.0264860152136 531.925457302597 89 86 56
-5.40777404276589 66.5332220070096 537 79 72 42
-3.9066451753683 67.3645091979661 532 57 51 24
-2.4281702619485 66.6047590942296 526 87 83 59
0.526818724219112 66.9810356250537 525.662117589885 86 84 66
3.35134637109783 67.4196966790619 523.573157550862 53 51 33
4.24114897066389 67.2615209314359 525.072955518672 46 44 26
5.65478408654525 67.1415665411235 528.989903949488 38 35 15
7.61273477603993 66.6047590942296 526 36 31 10
9.04714978146685 66.6047590942296 526 36 31 10
10.5214186453991 66.8580091288085 528 32 27 7
11.0062129603704 66.8610811605229 528.073472013726 38 33 13
12.0065956082319 67.1112591633873 530 35 30 10
13.5280616486682 67.4911342152555 533 31 26 5
15.0400936614114 66.9356164027688 526.547486907173 57 53 29
16.2500598367547 66.7313841115191 527 78 72 45
17.6536398140284 66.6047590942296 526 100 95 65
19.0409570255265 67.0024794263054 525.007732548381 95 90 59
23.435769987515 66.7313841115191 527 78 74 49
23.9110311592185 66.9113159589761 524.958740258007 50 46 22
25.1692003547888 66.5560664406613 525.542297267785 60 57 37
26.4099024502777 66.9846341460979 529 52 50 32
28.0582173358003 67.2273855777272 526.747106838646 28 26 8
29.2950946094824 66.9846341460979 529 27 24 8
30.7957959644894 67.1112591633873 530 24 21 7
32.2411190688169 67.1112591633873 530 24 21 7
33.8135608228544 67.3645091979661 532 38 35 19
35.1317652774719 67.1112591633873 530 49 45 28
36.6461017561047 67.2378841806767 531 50 46 29
37.0122824281451 67.4474754301967 528.459229828635 79 77 53
37.9382087413713 67.2989272701474 529.973980386895 87 83 58
39.193981424188 66.9443544175817 530.556425859511 103 100 72
40.1042251969374 67.2517988600489 536.405072976195 108 103 73
41.054116637698 67.0964840425079 537.930938906071 100 97 69
42.6397356901055 66.5358864974258 537.581079293042 56 55 31
42.9977525847564 66.6571199995739 538 102 100 76
44.3822433889541 66.5332220070096 537 84 81 60
45.5324526478264 66.7545963607212 534.446434619673 82 82 64
46.4806574398144 66.6025902435459 535.971260813437 78 80 62
48.728327655686 67.2207167277802 534.708791668336 84 86 68
48.7754802211646 66.5332220070096 537 112 110 92
