ply
format ascii 1.0
element vertex 704
property float x
property float y
property float z
property float nx
property float ny
property float nz
element face 0
property list uchar int vertex_indices
end_header
-16.5955752342746 -59.9555484067694 1069 0.115379 -0.860094 -0.496916
-13.6291963332969 -56.8269245173071 1065 0.074414 -0.859802 -0.505176
-7.8206336687354 -56.8269245173071 1065 -0.069757 -0.920401 -0.384703
-2.02340661546505 -60.0677196853602 1071 -0.032955 -0.856885 -0.514454
0.898074621343196 -60.1238053246556 1072 -0.05369 -0.831767 -0.552522
6.72594021517597 -59.9555484067694 1069 -0.100899 -0.844343 -0.526217
9.59603549459697 -56.7735659027369 1064 0.123268 -0.859021 -0.496878
18.3522981308463 -56.9336417464476 1067 -0.033987 -0.850411 -0.52502
21.3218143003352 -60.0116340460648 1070 -0.178424 -0.803648 -0.567728
26.9799803612276 -56.7202072881667 1063 -0.077961 -0.871396 -0.484346
32.9626450958079 -59.9555484067694 1069 0.053585 -0.879511 -0.472852
35.9113965798676 -60.0116340460648 1070 0.050175 -0.890282 -0.452637
41.7082133893519 -59.9555484067694 1069 0.002339 -0.864819 -0.502079
47.3162414928197 -56.7735659027369 1064 0.062673 -0.865223 -0.497455
50.2177958003753 -56.7735659027369 1064 0.092186 -0.859688 -0.502432
56.1262068673953 -56.8802831318774 1066 0.041231 -0.860252 -0.508199
59.2547282271194 -60.0116340460648 1070 0.044761 -0.819501 -0.571327
67.6906809705638 -56.8269245173071 1065 0.530696 -0.079946 -0.843783
70.6612486524247 -56.8802831318774 1066 0.686973 -0.387681 -0.614631
74.1203640038728 -60.2359766032464 1074 0.348987 -0.820069 -0.453536
79.9035456897314 -57.2537934338691 1073 0.45285 -0.710918 -0.538073
-55.7674306796606 -52.4075942412242 1094 -0.593633 0.35592 -0.721749
-49.2544406112304 -51.8327394597848 1082 -0.545799 0.657687 -0.519184
-45.8330588249393 -54.226432724097 1071 -0.67467 0.419584 -0.607264
-36.7942198610422 -50.9225527225058 1063 -0.869802 -0.065133 -0.489083
-33.8316194971615 -53.720116825646 1061 -0.599127 -0.311953 -0.737382
-27.9920080482516 -53.6188536459558 1059 -0.538622 -0.569687 -0.62076
-25.080383397972 -53.5682220561107 1058 -0.109887 -0.921414 -0.372721
-16.4403313125321 -53.6188536459558 1059 -0.032757 -0.892773 -0.449315
-13.5396147611531 -53.5682220561107 1058 -0.092419 -0.898649 -0.428823
-7.75454380674609 -53.4669588764205 1056 -0.049278 -0.903465 -0.42582
-1.99506758723724 -53.4669588764205 1056 0.097483 -0.807645 -0.581555
0.886346034870431 -53.5682220561107 1058 0.086452 -0.836102 -0.541718
6.66302215890678 -53.6188536459558 1059 0.081737 -0.846066 -0.526775
9.54192251248458 -53.5682220561107 1058 0.050034 -0.849757 -0.524795
18.2318987991537 -53.6694852358009 1060 -0.054266 -0.902322 -0.427633
21.1026180785561 -53.6188536459558 1059 -0.08278 -0.877253 -0.472837
23.9678833085082 -53.5682220561107 1058 -0.056794 -0.852905 -0.518967
29.7663756303457 -53.6188536459558 1059 -0.012933 -0.850953 -0.525082
38.3938441045317 -53.5682220561107 1058 -0.003354 -0.920255 -0.391304
41.2790362637364 -53.5682220561107 1058 0.059432 -0.876955 -0.476884
47.0938907339248 -53.6188536459558 1059 0.032498 -0.862597 -0.504846
52.8697291017846 -53.6188536459558 1059 0.071413 -0.857066 -0.510234
58.7563239710034 -53.720116825646 1061 -0.013334 -0.660245 -0.750932
61.5334866535742 -53.6188536459558 1059 0.170703 -0.632395 -0.755604
67.3728843462889 -53.6694852358009 1060 0.53244 0.052572 -0.844834
73.3612168865147 -53.8213800053362 1063 0.575022 -0.061932 -0.81579
76.5470057654669 -54.0239063647166 1067 0.51655 -0.445866 -0.731013
79.8290782659758 -54.2770643139421 1072 0.45285 -0.710918 -0.538073
87.1943272676008 -52.2638805458643 1091 0.793084 0.317175 -0.520017
-52.7358169414747 -49.3790516515194 1093 -0.774836 0.283746 -0.564905
-49.5730922602864 -46.2286115642559 1089 -0.78588 0.365711 -0.498646
-43.1528210325111 -48.6562110052026 1077 -0.64799 0.606986 -0.460083
-36.9326741220433 -48.2044356012545 1067 -0.975705 0.056761 -0.211608
-33.7678464161113 -50.730934462026 1059 -0.638637 -0.400639 -0.656987
-30.6758106215815 -47.5267724953325 1052 -0.701771 -0.485081 -0.521741
-24.9144451335242 -50.3476979410664 1051 -0.072955 -0.787895 -0.611473
-16.3006117829639 -47.4364174145429 1050 -0.050739 -0.781237 -0.622169
-13.4756279239076 -50.4435070713063 1053 -0.198872 -0.820163 -0.536454
-7.68111062675796 -47.2557072529637 1046 -0.012432 -0.826234 -0.56319
-1.9818427073976 -47.3912398741481 1049 0.082436 -0.780113 -0.620184
3.75371428956628 -50.4435070713063 1053 0.059533 -0.81249 -0.579927
6.63156313077219 -50.4914116364262 1054 0.080219 -0.842988 -0.531918
12.3801312513804 -50.4914116364262 1054 0.012658 -0.884665 -0.466055
18.0083000402962 -47.3008847933585 1047 0.157466 -0.920786 -0.356872
20.8634949275243 -47.3008847933585 1047 0.09692 -0.828431 -0.551641
26.7261705741982 -50.4435070713063 1053 0.004983 -0.880541 -0.473945
32.2842744764367 -47.3008847933585 1047 -0.026733 -0.822627 -0.567953
38.139820561307 -50.3476979410664 1051 0.035558 -0.847428 -0.529719
43.7050540253491 -47.3008847933585 1047 0.290594 -0.609442 -0.737656
46.8270698232511 -50.4435070713063 1053 0.140955 -0.820111 -0.554571
49.5570353293177 -47.4364174145429 1050 0.631783 -0.327085 -0.702756
58.4794327176056 -50.5872207666661 1056 0.021284 -0.328216 -0.944363
61.3591708273601 -50.5872207666661 1056 0.20468 -0.293843 -0.933682
67.4364436711438 -47.9333703588857 1061 0.635202 0.178808 -0.751363
70.7275350020048 -48.2044356012545 1067 0.698291 0.397545 -0.595271
77.6231117509233 -45.9314579545683 1082 0.607181 0.518276 -0.602264
80.499285079776 -48.8369211667818 1081 0.625442 0.529937 -0.572703
84.1419488439855 -46.2710620799256 1090 0.793578 0.317393 -0.519129
-56.1752363884699 -43.7752870208503 1102 -0.876544 0 -0.481321
-52.8805630081027 -43.5369460751833 1096 -0.834095 0.243044 -0.495193
-46.474978416325 -43.1397111657382 1086 -0.767252 0.42367 -0.481485
-43.3531591060139 -42.9808172019601 1082 -0.779338 0.363168 -0.510628
-37.140355513545 -45.5494033135414 1073 -0.76779 0.36993 -0.523116
-34.0867118213626 -42.4644118196815 1069 -0.728185 0.368863 -0.577656
-30.8507677163814 -44.9126455784966 1058 -0.868959 0.365542 -0.333601
-21.9434499392728 -44.4032393904607 1046 -0.92274 0.105675 -0.370653
-18.9814735753734 -41.3124305822907 1040 -0.746761 0.498969 -0.439748
-16.1298434690471 -41.2727070913462 1039 -0.612969 0.436822 -0.658374
-7.66642399076034 -44.3183383591214 1044 0.07993 -0.76438 -0.639792
-4.828642764255 -44.4032393904607 1046 0.08548 -0.79596 -0.599284
0.874617448397665 -44.3183383591214 1044 0.04853 -0.83215 -0.552423
6.54347785199533 -41.3124305822907 1040 -0.110008 -0.845721 -0.522163
12.1921975701451 -41.2329836004017 1038 -0.08286 -0.87248 -0.481574
15.0083763550445 -41.1932601094572 1037 -0.042051 -0.881386 -0.470522
23.6280739988412 -44.2758878434517 1043 -0.057535 -0.753658 -0.654743
26.4977417658717 -44.3183383591214 1044 -0.016762 -0.803604 -0.594929
32.1300993356705 -44.2334373277821 1042 0.007011 -0.80728 -0.590126
37.8495079404788 -44.2758878434517 1043 0.209228 -0.667792 -0.714338
40.732810831135 -44.3183383591214 1044 0.260488 -0.444741 -0.856943
46.4268384572404 -41.4713245460687 1044 0.588057 -0.055747 -0.806896
49.4154437998054 -44.4456899061304 1047 0.587623 -0.328313 -0.739533
55.3890897040336 -41.7891124736248 1052 0.579858 0.201682 -0.78936
61.4753813781695 -44.9126455784966 1058 0.7605 0.175105 -0.625282
64.7255673381532 -45.1673486725145 1064 0.642526 0.567838 -0.514509
71.1252530994856 -45.5494033135414 1073 0.547913 0.704077 -0.451738
74.5344442497045 -42.9013702200711 1080 0.644384 0.541666 -0.539785
80.9460896223094 -43.1794346566827 1087 0.681857 0.488847 -0.544151
84.296337740947 -43.3780521114052 1092 0.817803 0.350716 -0.456286
-60.3081751404333 -38.4845827980066 1123 0.998561 0 0.053625
-52.8805630081027 -40.548126976423 1096 -0.870342 0.157438 -0.466602
-46.5605676951764 -40.2521552466681 1088 -0.76972 0.31944 -0.552711
-43.5134295648162 -37.2166134627205 1086 -0.76517 0.310155 -0.564197
-37.2441962092958 -36.8739190477784 1076 -0.784252 0.277429 -0.554961
-31.1715223901812 -36.6340329573188 1069 -0.752474 0.2696 -0.600914
-28.1241705036257 -39.3642400574033 1064 -0.829713 0.400445 -0.38887
-22.0273637057709 -38.8462895303322 1050 -0.786455 0.449095 -0.424031
-19.145736327468 -35.9486441274345 1049 -0.777468 0.477516 -0.409294
-13.283667412171 -38.4023319356999 1038 -0.488821 0.462324 -0.739804
-7.61502076476865 -38.3653354694805 1037 -0.414485 -0.551874 -0.723628
-4.76863095169734 -38.2173496046031 1033 -0.254311 -0.721078 -0.644494
3.69311301423615 -38.3283390032611 1036 -0.029731 -0.884443 -0.4657
6.50572701823382 -38.2543460708224 1034 -0.181758 -0.877501 -0.443797
9.30743292333089 -38.1803531383837 1032 -0.087063 -0.881814 -0.463491
17.7847012814386 -38.2543460708224 1034 0.04602 -0.870825 -0.489434
20.5645909887345 -38.1803531383837 1032 0.078468 -0.819309 -0.567958
26.2439319788423 -38.2543460708224 1034 0.127407 -0.782642 -0.609294
29.0917835480716 -38.2913425370418 1035 0.122142 -0.727698 -0.674935
37.5591953196506 -38.2913425370418 1035 0.450375 -0.538173 -0.712412
43.7050540253491 -35.880105244446 1047 0.689291 0.466559 -0.554257
46.5602489125773 -38.7353001316742 1047 0.766985 0.27399 -0.580226
49.6514296823259 -38.920282462771 1052 0.657627 0.522008 -0.54317
56.0209044154864 -36.4626857498477 1064 0.277437 0.505972 -0.816714
58.922458723042 -39.3642400574033 1064 0.579252 0.619536 -0.529757
65.3338903394517 -39.734204719597 1074 0.436836 0.467834 -0.768313
71.788116595287 -37.1138051382379 1083 0.724509 0.529866 -0.440827
74.9485244955362 -37.2166134627205 1086 0.627443 0.503123 -0.594292
81.0950244698206 -40.2891517128874 1089 0.678236 0.479999 -0.556414
84.7595044318313 -37.6278467606512 1098 0.704091 0.491556 -0.512474
-53.0253090747307 -34.6651160292097 1099 -0.74483 0.327137 -0.581558
-46.8173355317307 -31.5240388960543 1094 -0.755141 0.351984 -0.553055
-43.6336324089179 -31.3799619358347 1089 -0.799566 0.302536 -0.518812
-37.3480369050466 -34.0342676938282 1079 -0.760048 0.353537 -0.545288
-34.2461445239882 -33.8765556099829 1074 -0.767373 0.351001 -0.536598
-28.1770354857754 -33.6242162758303 1066 -0.773821 0.220385 -0.593827
-22.1951912387673 -33.3718769416777 1058 -0.684308 0.573937 -0.449799
-16.2074654299183 -35.7772969199634 1044 -0.693808 0.555896 -0.457833
-13.3092621470693 -35.6402191539865 1040 -0.468734 0.449796 -0.760245
-10.4630860901932 -32.7725710230654 1039 -0.494935 0.478918 -0.725035
-4.75478207187634 -32.4886892721437 1030 -0.730254 0.118619 -0.672799
3.65390042431666 -32.3309771882984 1025 -0.47171 -0.751251 -0.461641
6.47426799009922 -35.2632552975501 1029 -0.286109 -0.837053 -0.466352
9.26233877157057 -35.1947164145617 1027 -0.051942 -0.822532 -0.566342
17.6127022361636 -32.2994347715293 1024 0.15889 -0.756182 -0.634778
20.3852486254607 -32.2678923547602 1023 0.586656 0.119948 -0.800904
26.0408841492187 -32.3625196050674 1026 0.267031 -0.643215 -0.717613
28.923135527503 -32.4571468553746 1029 -0.992887 -0.118132 0.014852
37.8857970180824 -32.9302831069107 1044 0.619128 0.726463 -0.298214
40.615762524149 -35.6744885954807 1041 0.721344 0.066799 -0.689348
43.9972559147259 -33.2457072746014 1054 0.60765 0.709498 -0.356895
53.2191985103894 -33.6242162758303 1066 0.437048 0.512244 -0.739321
56.1788580933497 -33.6557586925994 1067 0.277437 0.505972 -0.816714
62.4631710600493 -33.9080980267519 1075 0.728215 0.408777 -0.550094
65.6380518401009 -31.0918080153954 1079 0.664793 0.439188 -0.604288
72.0532619936075 -34.2866070279808 1087 0.685156 0.343888 -0.642108
78.412256140258 -34.4758615285952 1093 0.66876 0.47742 -0.569939
81.8396987073763 -31.6681158562739 1099 0.741161 0.429238 -0.516174
85.2998655711963 -31.8410082085375 1105 0.853259 0.33754 -0.397511
-53.2665525191107 -28.8015575199321 1104 -0.463332 0.433293 -0.773033
-50.1193522300967 -28.7232924179758 1101 -0.709646 0.379351 -0.593713
-43.7538352530196 -28.4884971121068 1092 -0.807674 0.282796 -0.517386
-40.5518807133074 -28.3319669081941 1086 -0.795094 0.274919 -0.540596
-31.3464794849811 -28.0449948676875 1075 -0.743879 0.483745 -0.461124
-28.2034679768502 -30.7460233108683 1067 -0.757006 0.387319 -0.526238
-22.2371481220164 -30.5443155665609 1060 -0.714673 0.38074 -0.586753
-19.2917476626632 -30.4578693904291 1057 -0.668317 0.555321 -0.494945
-13.4884252913567 -27.4971391539932 1054 -0.641979 0.452722 -0.618794
-10.5637895174328 -27.3666973173993 1049 -0.766159 0.395619 -0.506444
-4.80556129788667 -27.157990378849 1041 -0.698782 0.586533 -0.409491
0.862888861924899 -26.8710183383425 1030 -0.514386 0.431404 -0.741146
6.40505812820312 -29.334069100716 1018 -0.861362 0.133557 -0.49012
9.14509397699372 -26.453604461242 1014 -0.750057 0.279421 -0.599448
17.5267027135261 -29.3628844927599 1019 0.803931 0.008173 -0.594666
20.425102483966 -26.7405765017486 1025 0.56878 0.544311 -0.616616
26.2946939362481 -27.0275485422552 1036 0.592174 0.698912 -0.401063
32.191769391977 -27.2362554808054 1044 0.648764 0.590587 -0.479909
38.3212659493247 -27.5493158886307 1056 0.630793 0.49843 -0.594699
41.3180523660651 -27.6275809905871 1059 0.657179 0.496286 -0.567288
47.3607116445986 -27.7841111944997 1065 0.557962 0.483225 -0.674665
53.2691227116186 -30.7460233108683 1067 0.440879 0.479511 -0.758746
56.2315093193041 -30.7748387029123 1068 0.588989 0.597492 -0.544147
62.7536974370728 -28.1754367042814 1080 0.618359 0.578543 -0.531902
65.8813810406203 -28.2537018062378 1083 0.599932 0.534182 -0.595593
72.1858346927678 -28.4102320101504 1089 0.642401 0.391899 -0.658587
78.6992177363797 -28.6189389487007 1097 0.771119 0.349084 -0.532461
82.063100978643 -28.7493807852946 1102 0.841187 0.236807 -0.486134
85.6086433651192 -28.931999356526 1109 0.86634 0.272454 -0.418598
-59.4489313272125 -25.8610062511516 1107 -0.260549 0.395138 -0.880897
-53.3148012079867 -25.8142835659643 1105 -0.470964 0.411902 -0.780083
-50.1193522300967 -25.7208381955898 1101 -0.693219 0.368116 -0.619628
-43.7538352530196 -25.5105861122471 1092 -0.807674 0.282796 -0.517386
-40.6265618932582 -25.4171407418726 1088 -0.817372 0.271691 -0.508023
-31.521436579781 -22.3056976158341 1081 -0.734172 0.405946 -0.544242
-28.4149279054489 -25.1134432881553 1075 -0.568975 0.638932 -0.51772
-22.4888894215109 -22.1199887550177 1072 -0.588608 0.409272 -0.697163
-16.4092825281836 -24.6929391214699 1057 -0.587165 0.273638 -0.761813
-13.5012226588058 -24.6462164362827 1055 -0.641979 0.452722 -0.618794
-10.6040708883286 -24.5994937510954 1053 -0.58064 0.538148 -0.610945
-4.82402647098134 -21.5628621725685 1045 -0.744523 0.413714 -0.523953
0.865402130454778 -24.1322668992228 1033 -0.865069 0.370847 -0.337828
6.42393354508387 -21.0676385437249 1021 -0.572741 0.622446 -0.533412
11.910297048292 -23.6884013899437 1014 0.157524 0.500217 -0.851451
17.7159016633286 -21.2533474045412 1030 0.732189 0.552287 -0.398595
23.5827660908856 -21.4803249010946 1041 0.677417 0.402021 -0.616024
26.370836872357 -24.2724349547846 1039 0.672126 0.408883 -0.617302
29.3166475754963 -24.3658803251591 1043 0.679053 0.406178 -0.611479
35.3744037338135 -24.622855093689 1054 0.715945 0.296577 -0.632033
41.3960845707225 -24.7863844918445 1061 0.691546 0.313612 -0.650701
47.4496519481566 -24.9265525474063 1067 0.581377 0.561573 -0.588759
53.6685163214527 -22.1818917086231 1075 0.652119 0.519565 -0.55208
56.8106728048025 -22.2644289800971 1079 0.657571 0.527905 -0.537509
63.2185396403104 -22.4501378409135 1088 0.597388 0.501688 -0.62565
66.2463748413993 -22.4707721587819 1089 0.469778 0.48445 -0.737982
72.1858346927678 -25.4405020844662 1089 0.530727 0.469933 -0.705331
75.638658238589 -22.6152123838614 1096 0.733703 0.417217 -0.536292
82.2865032499097 -22.8009212446777 1105 0.81406 0.296214 -0.499564
85.9174211590421 -22.9659957876256 1113 0.899905 0.202718 -0.386105
-56.8379206652848 -19.9666318548245 1115 -0.883584 0.235593 -0.404692
-53.4595472746147 -19.8412808028212 1108 -0.672091 0.402682 -0.621403
-47.2452819259878 -16.7590163336864 1104 -0.631975 0.33347 -0.699575
-44.1144437853247 -16.7134755284318 1101 -0.699116 0.18319 -0.691143
-41.0373083829879 -16.6831149915954 1099 -0.672795 0.122266 -0.729656
-31.638074642981 -16.4705912337407 1085 -0.822401 0.324926 -0.46699
-28.5999553429728 -16.4250504284861 1082 -0.677687 0.329597 -0.657348
-22.5937816296336 -16.3491490863951 1077 -0.676052 0.281522 -0.680954
-19.5837703330535 -16.2884280127223 1073 -0.721374 0.301521 -0.623461
-13.6291963332969 -16.1669858653768 1065 -0.763765 0.337068 -0.550498
-10.6947039728443 -16.1214450601222 1062 -0.787681 0.320348 -0.526246
-1.97617490175204 -15.8785607654311 1046 -0.881732 0.396299 -0.25592
3.67885389062906 -18.4803265239273 1032 -0.828204 0.311123 -0.466133
6.44910076759155 -18.3549754719239 1025 -0.194808 0.860201 -0.471279
12.0042638889097 -18.3012535924939 1022 -0.071247 0.876081 -0.47687
14.8491746772186 -18.3728827650673 1026 0.472836 0.659977 -0.583829
20.6642256349978 -18.569862989644 1037 0.728704 0.34269 -0.59292
26.4469798084658 -18.6593994553607 1042 0.699191 0.354219 -0.621016
29.4852955960648 -15.9241015706857 1049 0.621824 0.616404 -0.483096
38.4664222597388 -18.9817307319408 1060 0.71847 0.406854 -0.564155
41.7472294916805 -16.2428872074678 1070 0.686699 0.292658 -0.665429
47.7609430106093 -16.3036082811405 1074 0.568568 0.532043 -0.627424
50.8313590949287 -16.3491490863951 1077 0.62547 0.51101 -0.589624
53.9680615288283 -16.4098701600679 1081 0.591774 0.484851 -0.64399
63.2185396403104 -19.4831349399544 1088 0.701032 0.216905 -0.679342
66.5505363420485 -16.6072136495044 1094 0.695615 0.228329 -0.681165
72.8486981885692 -16.6831149915954 1099 0.62292 0.343928 -0.702627
75.8456983615049 -19.6801151645311 1099 0.694784 0.354835 -0.625594
82.3609706736653 -19.8054662165345 1106 0.812106 0.283021 -0.510278
86.0718100560035 -19.9666318548245 1115 0.909647 0.214698 -0.355594
-57.0418235196895 -13.9351796925206 1119 -0.767904 -0.145083 -0.623919
-53.6042933412428 -13.8355537429763 1111 -0.735329 0.091582 -0.671494
-47.2880765654136 -13.760834280818 1105 -0.642877 0.264259 -0.718941
-44.1545114000253 -13.7234745497388 1102 -0.699116 0.18319 -0.691143
-37.9364675143013 -13.6487550875805 1096 -0.672695 0.112219 -0.731361
-31.6963936745809 -13.5366758943431 1087 -0.830698 0.29991 -0.469036
-28.5999553429728 -13.4744096758779 1082 -0.720657 0.346457 -0.600517
-22.5728031880091 -13.3996902137196 1076 -0.676052 0.281522 -0.680954
-16.6266240186231 -13.3374239952543 1071 -0.722282 0.300042 -0.623124
-13.6547910681951 -13.2876110204821 1067 -0.746113 0.313062 -0.587629
-7.76923044274372 -13.1755318272447 1058 -0.803184 0.26832 -0.531883
-1.97995343884908 -13.0509993903142 1048 -0.872203 0.341114 -0.350574
0.870428667514534 -12.9389201970768 1039 -0.883272 0.183074 -0.43164
6.48685160135306 -12.8392942475324 1031 -0.560015 0.360127 -0.746118
12.0629931642957 -15.5901356654854 1027 0.343407 0.704094 -0.62155
14.8925933166256 -15.6204962023218 1029 0.39936 0.739402 -0.54203
20.6841525642504 -15.7571186180855 1038 0.703452 0.054058 -0.708684
26.4977417658717 -15.8482002285947 1044 0.686084 0.474711 -0.551306
29.5977276097771 -13.1132656087795 1053 0.627147 0.639427 -0.444769
38.7204458029635 -13.2876110204821 1067 0.757083 0.382844 -0.529392
41.8252616963379 -13.3498772389474 1072 0.686699 0.292658 -0.665429
44.8321184558023 -13.3747837263335 1074 0.639088 0.414157 -0.648105
50.9729506244411 -13.4495031884918 1080 0.635676 0.501405 -0.586949
54.0679099312868 -13.4868629195709 1083 0.562454 0.483425 -0.67078
60.1961584886717 -13.5366758943431 1087 0.64052 0.297156 -0.708119
66.4288717417888 -13.5989421128083 1092 0.674192 0.307957 -0.671288
69.6610200410685 -13.6487550875805 1096 0.641571 0.23431 -0.730401
76.0527384844207 -13.7234745497388 1102 0.668263 0.277739 -0.690134
82.6588403686876 -13.8231004992832 1110 0.906671 0.202112 -0.370268
86.4577822984071 -13.9476329362137 1120 0.914562 0.20639 -0.34782
-59.8785532338229 -7.80410158067235 1115 -0.824535 0.188484 -0.533495
-53.7490394078708 -10.8350079302425 1114 -0.683214 0.195427 -0.703581
-47.373665844265 -10.7669243974672 1107 -0.701169 0.343177 -0.624973
-44.2346466294264 -7.72711044400203 1104 -0.768769 0.319083 -0.554238
-41.0746489729633 -7.69911366703101 1100 -0.702948 0.198064 -0.683106
-31.8130317377809 -10.6113048939808 1091 -0.786292 0.364243 -0.499071
-28.7056853072721 -7.60112494763244 1086 -0.752566 0.374503 -0.541656
-22.6357385128827 -7.55213058793315 1079 -0.684955 0.305329 -0.661522
-19.6385245837517 -7.53113300520488 1076 -0.701493 0.28183 -0.654584
-13.6931831705424 -7.48913783974835 1070 -0.700686 0.320393 -0.637485
-10.7249150010161 -10.3584232008153 1065 -0.783691 0.29528 -0.546477
-4.87480569699167 -10.2708872301042 1056 -0.837228 0.275551 -0.472357
3.69311301423615 -10.0763628507462 1036 -0.703057 0.277371 -0.654809
6.49314340697998 -10.0374579748746 1032 -0.477203 0.401385 -0.781772
9.31645175368296 -10.0471841938425 1033 -0.091362 0.553776 -0.827638
14.9939034752421 -7.25116523549466 1036 0.47932 0.248669 -0.841675
23.7866516766858 -10.2125299162968 1050 0.754217 0.49985 -0.425801
26.6754086167923 -10.2222561352647 1051 0.688689 0.454462 -0.564953
32.7467998987352 -7.43314428580631 1062 0.789794 0.422407 -0.444744
35.7435863154757 -10.3584232008153 1065 0.783812 0.397303 -0.477272
41.8642777986665 -7.51013542247662 1073 0.719403 0.343728 -0.603581
48.0722340730621 -7.56612897641866 1081 0.652977 0.437326 -0.618358
51.2561336834657 -7.60112494763244 1086 0.604816 0.385727 -0.696715
57.3371850643466 -7.6221225303607 1089 0.553394 0.443551 -0.704995
60.4176714913899 -7.63612091884621 1091 0.618356 0.486928 -0.616877
66.6113686421784 -10.6502097698524 1095 0.612825 0.398789 -0.682211
72.9149845381493 -10.6988408646919 1100 0.598362 0.374717 -0.708202
76.2597786073366 -7.73410963824479 1105 0.689404 0.417387 -0.592039
82.8077752161988 -10.8155554923067 1112 0.832597 0.378913 -0.403988
86.76656009233 -7.86709432885714 1124 0.919924 0.238251 -0.311409
-57.1947506604929 -1.73365245714348 1122 -0.637216 0.582438 -0.504699
-53.8937854744988 -1.72592673318117 1117 -0.579193 0.446439 -0.682076
-50.7566555282087 -1.72283644359624 1115 -0.637132 0.32162 -0.700446
-44.4750523176298 -1.71511071963393 1110 -0.669207 0.392176 -0.631158
-38.0749217753024 -1.6996592717093 1100 -0.621909 0.432417 -0.652874
-31.9005102851808 -4.6737534522645 1094 -0.683325 0.385731 -0.619902
-28.8378477626463 -1.68575296857713 1091 -0.759653 0.370054 -0.534778
-22.6986738377563 -4.62248741805319 1082 -0.677251 0.470741 -0.56545
-16.7042459794944 -1.66257579669019 1076 -0.691908 0.457407 -0.558608
-13.7187779054406 -4.5797657228771 1072 -0.702963 0.343171 -0.622958
-10.765196371912 -1.65175978314295 1069 -0.781214 0.285122 -0.555347
-4.884038283539 -4.51995534963057 1058 -0.804967 0.16013 -0.571302
3.7002425760397 -4.43451195927838 1038 -0.704151 0.302912 -0.642196
6.4994352126069 -4.41315111169034 1033 -0.085213 0.484798 -0.870465
9.32547058403502 -4.41742328120795 1034 0.054714 0.577838 -0.814316
15.0373221146492 -4.43878412879599 1039 0.518323 0.618327 -0.590774
20.9232757152822 -1.62240203208615 1050 0.722507 0.332947 -0.605912
26.802313510307 -1.63167290084093 1056 0.668087 0.447009 -0.594847
32.8393049831949 -4.54986053625383 1065 0.815965 0.294118 -0.49769
35.944958632746 -1.65485007272787 1071 0.746385 0.363381 -0.557551
42.0203422079812 -4.60112657046514 1077 0.704703 0.485353 -0.517519
45.0825772181252 -4.61394307901797 1080 0.62733 0.578097 -0.521786
51.2561336834657 -4.63957609612363 1086 0.570141 0.477601 -0.668459
54.3674551386623 -1.68266267899221 1089 0.50382 0.495685 -0.707433
60.6391844941081 -4.67802562178211 1095 0.633156 0.495563 -0.594585
66.9763624429574 -4.70365863888777 1101 0.518306 0.468228 -0.715626
69.9788166653434 -4.70365863888777 1101 0.548756 0.458876 -0.698785
76.5358321045577 -4.73783599502864 1109 0.698602 0.437147 -0.566443
79.9905449189274 -1.72283644359624 1115 0.758556 0.377948 -0.530799
87.1525323347336 -4.82327938538082 1129 0.91199 0.246706 -0.327736
-57.2457263740941 1.32725116440327 1123 -0.754517 0.463999 -0.464121
-53.9420341633748 1.32134176473986 1118 -0.658811 0.378791 -0.649988
-47.673228320245 1.31661424500912 1114 -0.54126 0.400224 -0.739499
-44.5151199323304 1.31306860521107 1111 -0.606905 0.448842 -0.655902
-38.2133760363035 1.30479544568229 1104 -0.627703 0.558162 -0.542627
-32.0171483483807 1.29770416608619 1098 -0.606243 0.512265 -0.608321
-28.9171452358708 1.29297664635546 1094 -0.675481 0.486309 -0.554283
-22.7825876042545 1.28352160689399 1086 -0.63397 0.520169 -0.572282
-19.7845359189469 1.28115784702863 1084 -0.685981 0.505804 -0.523061
-13.769967375237 1.27170280756716 1076 -0.771377 0.343833 -0.535496
-10.7954074000839 1.26697528783643 1072 -0.792606 0.33198 -0.511435
-1.99317831868872 4.12389441401009 1055 -0.944197 0.236049 -0.229722
3.71806648054856 4.07698755811614 1043 -0.296397 0.61574 -0.730077
6.54976965762225 4.06916974880048 1041 0.163397 0.563776 -0.809603
9.39762122685154 4.07307865345831 1042 0.237546 0.766219 -0.597059
15.1241593934634 1.23506452965398 1045 0.612997 0.547301 -0.569822
20.9830565030402 1.24451956911545 1053 0.721719 0.408595 -0.558724
23.9452293545304 1.24924708884618 1057 0.663401 0.449091 -0.598512
32.9009750395014 1.26106588817301 1067 0.754314 0.322004 -0.572122
36.0456447913811 1.26933904770179 1074 0.784266 0.343244 -0.516827
42.293454924282 1.28115784702863 1084 0.669283 0.497628 -0.551748
48.4724654390728 1.28824912662473 1090 0.53743 0.522268 -0.662122
51.4921195659863 1.28943100655741 1091 0.317165 0.615042 -0.721893
54.5671519435793 1.29179476642278 1093 0.522073 0.526607 -0.670913
60.8606974968263 1.29888604601888 1099 0.59714 0.327161 -0.732387
67.0980270432171 1.30361356574961 1103 0.542162 0.391525 -0.743484
70.2966132896184 1.30715920554766 1106 0.645897 0.344677 -0.681186
76.8118856017788 1.31543236507644 1113 0.69276 0.327514 -0.64251
83.6269168775101 1.32725116440327 1123 0.884018 0.234234 -0.404533
87.4613101286565 1.33906996373011 1133 0.885178 0.221294 -0.409254
-57.551580655701 4.41315335868947 1129 -0.837065 0.381542 -0.392107
-54.1350289188788 4.38579102608466 1122 -0.71524 0.438356 -0.544313
-50.8932205206613 4.37015540745335 1118 -0.628774 0.418029 -0.655663
-41.5600766426438 7.38578940325196 1113 -0.581217 0.422666 -0.695371
-38.4210574278052 7.36588161510303 1110 -0.610453 0.482244 -0.628322
-35.3302869018426 7.35260975633708 1108 -0.634221 0.476302 -0.609016
-29.0757401823198 7.29952232127327 1100 -0.659091 0.461074 -0.594146
-22.9294366956263 7.25307081559244 1093 -0.723667 0.430416 -0.539489
-16.8129167247141 4.23334374442931 1083 -0.733378 0.379026 -0.564355
-13.7955621101352 4.21379922114017 1078 -0.763679 0.351282 -0.541659
-7.83532030473303 4.17080126990404 1067 -0.893466 0.311757 -0.323304
-1.99884612433428 7.02081328718829 1058 -0.577037 0.586967 -0.567889
3.73232560415565 6.94781806397556 1047 -0.152019 0.528435 -0.835253
6.58122868575684 6.94118213459258 1046 0.215128 0.539755 -0.81387
9.42467771790773 6.93454620520961 1045 0.25055 0.537188 -0.80539
15.1820509126728 6.96108992274151 1049 0.549321 0.491306 -0.675917
21.0826911493034 7.02081328718829 1058 0.790458 0.308582 -0.529107
27.0307423186335 7.06726479286912 1065 0.710952 0.365491 -0.600803
33.0551501802676 7.11371629854995 1072 0.742483 0.300591 -0.598636
36.0120827385027 4.19425469785102 1073 0.815672 0.327001 -0.477231
42.293454924282 4.23725264908714 1084 0.696638 0 -0.717423
48.5614057426307 4.26852388634978 1092 0.477935 0.526487 -0.703128
51.7281054485069 7.27297860374137 1096 0.519537 0.349755 -0.779585
54.6670003460379 4.28025060032327 1095 0.50786 0.456089 -0.730795
60.9160757475059 4.29979512361242 1100 0.592275 0.315648 -0.741334
64.1482240467855 7.32606603880518 1104 0.622654 0.237864 -0.745468
70.4872912641834 7.35924568572005 1109 0.655382 0.314607 -0.686656
76.8808989760841 4.35451978882203 1114 0.711884 0.317326 -0.626519
83.7013843012657 4.39360883540032 1124 0.896175 0.287557 -0.337906
84.0737214200435 7.49196427337957 1129 0.902721 0.178161 -0.391605
-57.8064592237067 13.7100359969261 1134 -0.861224 0.143526 -0.487537
-54.3762723632589 10.5520492798534 1127 -0.751287 0.293659 -0.591044
-47.9299961567993 10.4865086010966 1120 -0.580522 0.462116 -0.670405
-44.915796079336 13.5528662720936 1121 -0.360893 0.303512 -0.881837
-38.4556709930554 10.4022420141235 1111 -0.572939 0.487057 -0.659179
-35.425946523418 13.4319664837609 1111 -0.698502 0.478954 -0.531693
-29.1286051644695 10.3179754271504 1102 -0.709325 0.341189 -0.616805
-26.076012984659 13.298976716595 1100 -0.704219 0.368841 -0.606656
-16.8905386855854 13.1538969705958 1088 -0.825872 0.240748 -0.509879
-13.8211568450335 10.1119904367717 1080 -0.807262 0.299502 -0.508554
-10.8658997991516 13.0450871610964 1079 -0.728488 0.296795 -0.617429
-4.911736043181 9.96218317104174 1064 -0.841477 0.341657 -0.418554
3.73945516595919 9.82173885941991 1049 -0.013478 0.425528 -0.904845
6.59381229701068 12.670297817265 1048 -0.128235 0.323522 -0.937491
9.46977186966806 12.6944777749316 1050 0.295235 0.364732 -0.883067
18.1114994674612 9.8591906758524 1053 0.66363 0.305131 -0.683001
21.0826911493034 9.90600544639301 1058 0.782194 0.289132 -0.551883
27.0561232973364 9.98090907925798 1066 0.725434 0.398421 -0.561254
30.0474556646266 10.0089979415824 1069 0.696664 0.35152 -0.625375
36.3141412144082 13.0813570975962 1082 0.776483 0.404784 -0.482933
42.4885354359253 13.165986949429 1089 0.676234 0.354993 -0.645514
45.583494742771 10.2243458860692 1092 0.66461 0.233542 -0.709755
51.8224998015151 13.2747967589285 1098 0.506766 0.270083 -0.818684
57.916348549845 10.2992495189341 1100 0.482418 0.236847 -0.843313
61.026832248865 10.3179754271504 1102 0.65986 0.182437 -0.728905
67.4021885438663 10.3741531517991 1108 0.603377 0.327807 -0.726966
70.5508505890383 10.3928790600153 1110 0.635538 0.313317 -0.705637
73.9755661314315 13.4924163779273 1116 0.694425 0.32705 -0.640947
80.4927277121404 10.5052345093128 1122 0.798727 0.250082 -0.547261
-57.8574349373079 16.8172990388003 1135 -0.851384 0.179355 -0.492927
-54.4727697410109 16.7283970174499 1129 -0.724843 0.345256 -0.596155
-48.0583800750764 16.6394949960994 1123 -0.569138 0.352171 -0.743006
-41.8214607724717 16.5950439854241 1120 -0.475507 0.289687 -0.830647
-38.7325795150576 16.5802269818657 1119 -0.64816 0.300204 -0.699833
-35.5534926855185 16.5209589676321 1115 -0.721373 0.408839 -0.558991
-29.207902637694 16.3727889320479 1105 -0.706758 0.366357 -0.605207
-23.0553073453736 16.2838869106974 1099 -0.725335 0.260141 -0.63735
-19.9670500879409 16.2098018929054 1094 -0.815253 0.263558 -0.515655
-13.885143682279 19.0352706876633 1085 -0.765115 0.227535 -0.602352
-10.8961108273234 18.9826386028126 1082 -0.742932 0.305061 -0.595811
-4.94405009609666 15.8690108110618 1071 0.999989 0 0.004616
3.73945516595919 15.5430367327767 1049 -0.070691 0.408876 -0.909848
6.59381229701068 15.5282197292183 1048 -0.144821 0.430476 -0.890908
9.46977186966806 18.4212296977387 1050 0.32903 0.462404 -0.82336
15.2544153116846 18.4914058108729 1054 0.44252 0.416453 -0.794193
21.2819604418299 18.7370222068428 1068 0.12385 0.771994 -0.623448
24.2170768022639 18.7545662351263 1069 0.287964 0.492496 -0.821295
33.1784902928805 15.9430958288539 1076 0.800209 0.343942 -0.491293
36.3477032672865 16.0468148537628 1083 0.738091 0.469174 -0.484868
42.527551538254 16.1505338786717 1090 0.641619 0.418477 -0.642808
48.6948161979676 16.2246188964638 1095 0.654216 0.34405 -0.673521
51.8696969780192 16.2838869106974 1099 0.412552 0.398541 -0.819125
57.9689997757994 16.3135209178143 1101 0.366464 0.403749 -0.838267
61.026832248865 16.3283379213727 1102 0.499383 0.33248 -0.800046
67.5846854442559 16.4616909533984 1111 0.518967 0.41493 -0.747333
70.7415285636033 16.4913249605152 1113 0.61651 0.343912 -0.708266
73.9755661314315 16.5357759711905 1116 0.640552 0.380094 -0.667249
80.7079489092317 16.6691290032162 1125 0.775739 0.389954 -0.496149
84.2226562675547 16.7580310245667 1131 0.890958 0.227753 -0.392838
-57.908410650909 19.9300161301249 1136 -0.892942 0.223035 -0.391038
-51.3029154980191 19.7721198755728 1127 -0.577054 0.360334 -0.732918
-48.272353272205 22.8657477938214 1128 -0.502711 0.521905 -0.689128
-41.8961419524225 22.7441214757691 1122 -0.542236 0.275174 -0.793889
-38.7671930803079 19.6493116775879 1120 -0.610962 0.225245 -0.758941
-32.4545410853805 19.526503479603 1113 -0.785803 0.297257 -0.542358
-29.2872001109185 22.4603267336472 1108 -0.770576 0.250992 -0.585845
-23.0972642286227 19.3159751402003 1101 -0.739061 0.24299 -0.628287
-16.9215874699339 22.0954477794905 1090 -0.803426 0.320786 -0.5016
-13.8979410497281 22.0143635674557 1086 -0.758466 0.198522 -0.62074
-7.92344012071878 21.8724661963947 1079 -0.758091 0.261519 -0.597416
-4.96251526919133 21.7913819843599 1075 -0.819149 0.264181 -0.509121
0.888021547223683 21.4873161892293 1060 -0.574291 0.574394 -0.583319
6.63156313077219 21.365689871177 1054 -0.045545 0.708537 -0.704202
9.49682836072425 21.3454188181683 1053 0.139848 0.667382 -0.731466
15.2978339510917 21.4265030302032 1057 0.338136 0.642608 -0.687545
21.3616681588405 21.7305688253338 1072 0.241078 0.54054 -0.806038
27.233790148257 21.7508398783425 1073 0.504529 0.468695 -0.725104
33.3943354899532 21.9535504084295 1083 0.854935 0.368241 -0.365356
36.5826376374352 22.0954477794905 1090 0.683867 0.516865 -0.514952
39.6276727430517 22.1359898855079 1092 0.644983 0.482024 -0.593001
45.8756966321478 22.2778872565689 1099 0.587149 0.447735 -0.674381
52.0584856840356 22.3589714686037 1103 0.410975 0.518081 -0.750128
55.1662423583305 22.3995135746211 1105 0.471871 0.576098 -0.667419
61.5806147556605 22.541410945682 1112 0.558265 0.3594 -0.747778
67.7063500445155 19.526503479603 1113 0.520687 0.44619 -0.727873
70.8686472133133 19.5615915361701 1115 0.627755 0.432596 -0.647136
74.3069978793322 22.7238504227604 1121 0.694236 0.465381 -0.54905
81.1383913034143 19.8422959887071 1131 0.73826 0.467217 -0.486498
88.5420324073866 20.1230004412441 1147 0.875495 0.408374 -0.25834
89.0823935467516 23.3927951720477 1154 0.875609 0.400845 -0.269504
-58.2652406461171 26.2868028497941 1143 0.998703 0 0.05091
-54.6657644965149 26.0568220724556 1133 -0.625319 0.459125 -0.631016
-48.3579425510564 25.987827839254 1130 -0.308312 0.592751 -0.744036
-45.3565398410423 29.1208159835873 1132 -0.463858 0.575793 -0.673274
-38.7671930803079 25.7578470619155 1120 -0.726628 0.324978 -0.605311
-32.4837006011805 25.6198585955124 1114 -0.722362 0.173545 -0.669384
-26.2656567154565 28.5034135245713 1108 -0.723152 0.373465 -0.581012
-23.0972642286227 25.3208835849723 1101 -0.708088 0.299944 -0.639253
-20.0400557555385 25.2518893517707 1098 -0.767744 0.365479 -0.526302
-14.0003199893209 28.1432620901453 1094 -0.777358 0.413273 -0.474258
-10.9263218554953 24.9529143412306 1085 -0.720992 0.312267 -0.618595
-2.02529588401357 27.5773098360473 1072 -0.867591 0.162029 -0.470141
3.77510297497692 24.3549643201504 1059 -0.53949 0.506661 -0.672492
6.6693139645337 27.2686086065393 1060 -0.242374 0.610353 -0.754138
9.51486602142838 24.262972009215 1055 0.192014 0.716613 -0.670519
15.3267797106964 24.3549643201504 1059 0.34239 0.723684 -0.599208
21.4214489465985 27.6544851434243 1075 0.269708 0.40565 -0.87333
27.2591711269599 24.6999354861582 1074 0.236699 0.558219 -0.795214
33.5176756025661 24.9989104966983 1087 0.809802 0.31469 -0.495167
36.6833237960703 25.1368989631014 1093 0.744142 0.299401 -0.59717
39.7365399758622 25.1828951185691 1095 0.641932 0.351143 -0.681632
45.9591828862554 25.3208835849723 1101 0.611801 0.272403 -0.742628
52.200077213548 25.4358739736415 1106 0.56123 0.428371 -0.70818
55.3160149620182 28.5034135245713 1108 0.531863 0.392604 -0.750323
61.63599300634 25.5968605177785 1113 0.581 0.317446 -0.749445
68.0713438452946 28.7863896516203 1119 0.659233 0.415364 -0.626805
71.2500031624432 25.7808451396493 1121 0.707551 0.463105 -0.533765
78.0541263392739 26.0108259169879 1131 0.679895 0.299869 -0.669194
81.425352899536 26.1028182279233 1135 0.664648 0.31912 -0.675578
85.3396676238883 26.3557970829957 1146 0.934178 0.230609 -0.272271
89.545560237636 26.6777701712696 1160 -0.997034 0 0.076965
-58.6220706413252 29.5838678278492 1150 0.998703 0 0.05091
-51.7581321395277 32.3500686083735 1137 -0.283206 0.369912 -0.88485
-48.6147103876107 32.3216164811894 1136 -0.343173 0.362565 -0.866475
-45.4366750704434 32.2647122268211 1134 -0.575964 0.342784 -0.742135
-39.0094880370598 32.0655473365321 1127 -0.714684 0.440102 -0.543634
-35.7766984691944 31.9232867006113 1122 -0.816365 0.410362 -0.406389
-26.2893621818062 31.5534090472174 1109 -0.700274 0.330864 -0.63257
-23.2021564367454 31.468052665665 1106 -0.639806 0.436199 -0.632755
-17.0768313916764 31.2973399025601 1100 -0.681746 0.3957 -0.61534
-14.0259147242191 31.1835313938236 1096 -0.770452 0.342727 -0.537533
-10.9867439118391 34.0164547330374 1091 -0.847163 0.238768 -0.474663
-4.98098044228599 30.6998452316931 1079 -0.870299 0.20216 -0.449122
3.80005644128932 33.2369759353051 1066 -0.210694 0.674499 -0.707573
6.67560577016062 30.1877069423785 1061 -0.431115 0.559997 -0.707491
9.5870166642449 33.1434384795772 1063 0.200191 0.611489 -0.76551
15.4715085087199 33.3305133910329 1069 0.657111 0.349051 -0.668108
21.4413758758511 30.6144888501406 1076 0.674864 0.355904 -0.646445
24.4436163420419 30.6998452316931 1079 0.542551 0.43323 -0.719687
33.641015715179 34.0164547330374 1091 0.760448 0.26368 -0.593457
36.7840099547055 31.1835313938236 1096 0.744705 0.258623 -0.615247
39.8091181310693 31.2119835210077 1097 0.654205 0.286465 -0.699967
46.0009260133092 31.3542441569284 1102 0.644455 0.339299 -0.68524
52.4360630960685 31.6103133015857 1111 0.495306 0.415453 -0.762936
58.6008144872523 31.667217555954 1113 0.49202 0.364381 -0.79066
61.63599300634 31.667217555954 1113 0.534476 0.403167 -0.742827
68.1930084455543 31.8948345734272 1121 0.678379 0.436738 -0.590814
71.6313591115732 32.0655473365321 1127 0.735554 0.385715 -0.556942
78.2611664621897 32.2647122268211 1134 0.690785 0.281296 -0.6661
81.425352899536 29.1979912909643 1135 0.665462 0.311771 -0.678202
85.4141350476439 32.634589880215 1147 0.932675 0.11094 -0.343235
89.6227546861167 33.032919660793 1161 -0.997034 0 0.076965
-58.7240220685275 35.9183829995042 1152 -0.923187 0.101969 -0.370578
-55.196500074151 38.7886660697971 1144 -0.822422 0.036502 -0.567705
-48.7002996664621 38.5852290099905 1138 -0.565119 0.222894 -0.794329
-42.3442290321276 35.3571582651369 1134 -0.552589 0.279841 -0.78507
-39.1133287328107 38.313979596915 1130 -0.591884 0.306575 -0.745442
-32.6586576959804 37.9749178305706 1120 0.893667 -0.446834 0.041209
-26.3367731145056 34.6400377712232 1111 -0.650694 0.347788 -0.675012
-23.2441133199945 34.5465003154953 1108 -0.648827 0.358838 -0.671013
-20.1678156738343 34.4529628597674 1105 -0.705084 0.286403 -0.648714
-14.0515094591173 37.228981944613 1098 -0.808844 0.224399 -0.543522
-7.98218666470928 36.8560140016342 1087 -0.85063 0.364664 -0.378746
-2.02907442111061 36.4152337053865 1074 -0.860925 0.179859 -0.475877
0.896399108989944 36.2796089988487 1070 -0.652975 0.372875 -0.659233
6.70706479829521 36.143984292311 1066 0.018607 0.722305 -0.691324
12.5328273673842 36.1778904689454 1067 0.177971 0.625911 -0.759317
15.4715085087199 36.2457028222143 1069 0.498068 0.612723 -0.613596
21.4613028051038 36.5169522352898 1077 0.781246 0.256654 -0.56902
24.5115782039753 36.686483118462 1082 0.707165 0.331541 -0.624499
30.6096157331883 36.923826354903 1089 0.740224 0.297561 -0.602931
36.7840099547055 34.1723504925838 1096 0.751716 0.257499 -0.607139
39.9542744414834 37.3307004745163 1101 0.609786 0.347779 -0.712188
46.2096416485783 37.5341375343229 1107 0.69024 0.357694 -0.628986
49.3618684746521 37.6358560642262 1110 0.720804 0.324361 -0.612562
58.7587681651155 34.7959335307697 1116 0.351903 0.555445 -0.753422
62.0236407610969 37.9749178305706 1120 0.571775 0.500133 -0.650339
68.4971699462035 38.1783548903772 1126 0.67019 0.427827 -0.606473
71.6949184364282 35.1700833536812 1128 0.716099 0.402329 -0.570381
78.3991932108003 35.4195165689555 1136 0.62644 0.321318 -0.71016
81.7840548946881 38.6530413632594 1140 0.847803 0.1242 -0.515563
85.7120047426662 39.0260093062382 1151 -0.997239 0 0.074262
89.8543380315589 36.2925328224157 1164 -0.997034 0 0.076965
-58.8259734957298 42.2747143689603 1154 0.998703 0 0.05091
-51.8946971319802 41.7618495499261 1140 -0.694094 0.260465 -0.671112
-48.6575050270364 41.6519499458473 1137 -0.56778 0.230489 -0.790254
-45.476742685144 41.5786835431282 1135 -0.49595 0.20721 -0.843266
-39.2171694285615 41.505417140409 1133 -0.547014 0.242998 -0.801079
-36.0317907933954 41.3955175363302 1130 -0.652791 0.250543 -0.714908
-29.5779575127417 44.0440929888134 1119 -0.621125 0.317705 -0.716426
-23.3699839697417 43.8472918583898 1114 -0.625544 0.39601 -0.672213
-20.2590727583312 43.6898509540509 1110 -0.739805 0.335732 -0.583072
-14.0771041940156 43.2962486932036 1100 -0.794028 0.232911 -0.561491
-8.00421661870572 39.9301894819469 1090 -0.855039 0.286568 -0.432188
-4.99944561538066 39.6737570724298 1083 -0.881751 0.201291 -0.426612
0.898074621343196 39.2707918574743 1072 -0.497743 0.576019 -0.648424
6.74481563205672 42.1941623628311 1072 -0.118085 0.538317 -0.834428
12.5680649326158 39.1975254547552 1070 0.405593 0.636917 -0.655615
18.5242971761213 39.4539578642723 1077 0.693613 0.411937 -0.590939
21.5210835928617 39.563857468351 1080 0.679844 0.357469 -0.640334
27.5891238500982 39.8202898778681 1087 0.705149 0.331916 -0.626575
30.6658317400445 39.9668226833064 1091 0.770128 0.364039 -0.523812
36.8846961133406 40.2598882941831 1099 0.619214 0.337985 -0.70876
43.1518091755128 43.5324100497119 1106 0.666754 0.334156 -0.666167
46.293127902686 40.626220307779 1109 0.688164 0.338677 -0.64166
49.539749081768 43.8472918583898 1114 0.614594 0.339805 -0.711904
55.7653327730815 40.9192859186556 1117 0.557111 0.360368 -0.748173
62.134397262456 41.1024519254536 1122 0.614297 0.38578 -0.688341
68.679666846593 41.3588843349706 1129 0.672736 0.393443 -0.626602
72.0127150607031 41.505417140409 1133 0.667633 0.404116 -0.625265
78.6062333337162 41.7252163485665 1139 0.589717 0.47136 -0.655785
81.927535692749 41.8351159526452 1142 0.503218 0.482379 -0.716995
86.0098744376885 42.3113475703198 1155 -0.997239 0 0.074262
90.1631158254817 39.6024143090236 1168 -0.997034 0 0.076965
-52.0312621244328 44.988738414847 1143 -0.643177 0.397607 -0.654394
-48.7430943058878 44.8312975105081 1139 -0.513343 0.465092 -0.721227
-42.4189102120784 44.7132168322539 1136 -0.507111 0.281302 -0.814682
-39.2517829938118 44.6344963800844 1134 -0.565725 0.291323 -0.771418
-36.0636773339206 44.5164157018302 1131 -0.620127 0.316378 -0.717877
-26.5027113789534 47.0535464054422 1118 -0.615523 0.376489 -0.692378
-23.4119408529908 46.9693719038224 1116 -0.67323 0.3267 -0.663346
-20.29557559213 46.8010229005829 1112 -0.707348 0.29753 -0.641197
-14.1026989289138 46.3801503924842 1102 -0.740064 0.261187 -0.619747
-8.02624657270216 46.0013651351953 1093 -0.777555 0.275699 -0.565153
-2.04229930095025 48.4442318533598 1081 -0.79101 0.230682 -0.566648
0.903101158402953 48.3097890267548 1078 -0.552004 0.282416 -0.784559
6.75739924331056 45.2017073698076 1074 0.030851 0.553795 -0.832081
12.6267942080019 45.2437946206175 1075 0.420768 0.466243 -0.778185
15.6017644269412 45.3700563730471 1078 0.530681 0.35033 -0.771781
21.6007913098723 45.6225798779064 1084 0.664784 0.379367 -0.64354
27.665266786207 45.8751033827657 1090 0.716479 0.398539 -0.57256
30.8063717571849 46.1276268876249 1096 0.744243 0.447109 -0.496181
33.9493659967114 46.3380631416743 1101 0.683425 0.415304 -0.600377
43.2688574824988 46.6747611481533 1109 0.677024 0.336441 -0.654558
46.4183572838474 46.8010229005829 1112 0.675251 0.344935 -0.651963
49.5842192335469 46.9272846530126 1115 0.610628 0.308748 -0.729252
55.9151053767693 47.137720907062 1120 0.571971 0.310555 -0.759213
62.2451537638151 44.2408941192371 1124 0.649426 0.370845 -0.663868
65.6589612073076 47.5585934151607 1130 0.715542 0.321267 -0.620313
68.9229960471124 47.6848551675903 1133 0.694494 0.319087 -0.644873
75.699011220515 48.0636404248792 1142 0.712052 0.295054 -0.637122
79.0203135795478 48.1899021773089 1145 0.642341 0.379799 -0.665696
86.4566789802219 48.8632981902669 1161 -0.997239 0 0.074262
-52.2133487810363 51.4019740386714 1147 -0.458058 0.503956 -0.732264
-48.9570675030164 51.2675312120663 1144 -0.49738 0.533325 -0.684235
-45.7972836027485 51.2227169365313 1143 -0.522421 0.526308 -0.670877
-39.3556236895626 50.9538312833211 1137 -0.66628 0.356221 -0.655117
-36.1274504149708 50.774574181181 1133 -0.661568 0.256758 -0.704559
-26.5501223116528 50.1919885992257 1120 -0.562047 0.433358 -0.704489
-23.4329192946154 50.0575457726207 1117 -0.6695 0.39038 -0.63196
-17.2475997055932 52.818384589048 1111 -0.772618 0.354599 -0.526612
-14.1154962963629 49.4301459151303 1103 -0.808062 0.297875 -0.508238
-8.04827652669859 52.1052650851455 1096 -0.811243 0.227246 -0.538743
-2.04607783804729 51.4872281817633 1083 -0.730859 0.340505 -0.591525
0.903938914579579 51.2970629807226 1079 -0.520545 0.325913 -0.789185
6.7699828545644 51.1544390799421 1076 -0.050458 0.353787 -0.933964
12.6737776283107 51.2970629807226 1079 0.426845 0.290593 -0.856364
15.6451830663482 51.3921455812429 1081 0.680573 0.312112 -0.662877
21.6804990268829 51.7249346830641 1088 0.677366 0.355963 -0.64379
24.7381177437532 51.9150998841048 1092 0.745198 0.346287 -0.569882
30.8906957674692 49.2508888129903 1099 0.762172 0.343228 -0.548897
34.0418710811711 52.4855954872268 1104 0.665688 0.298478 -0.683938
40.2445870623116 52.7233019885277 1109 0.608077 0.4173 -0.675354
46.4601004109012 49.8782886704806 1113 0.637716 0.399225 -0.65874
52.8136405081014 50.1471743236907 1119 0.535364 0.388835 -0.749795
55.9650295779986 50.2368028747608 1121 0.549664 0.356522 -0.755487
62.3559102651742 50.4608742524359 1126 0.679129 0.299587 -0.670099
65.8332770335217 53.8642931947717 1133 0.654425 0.38366 -0.651562
72.2669523601231 50.9538312833211 1137 0.664441 0.183496 -0.724463
75.6327248709349 51.1330883854612 1141 0.761816 0.076816 -0.643223
82.429718485962 51.4916025897414 1149 0.713806 0.102277 -0.692835
86.6056138277331 52.1190024472317 1163 -0.997239 0 0.074262
-59.5396334861459 55.5282387038776 1168 0.998703 0 0.05091
-55.727235651787 58.0599153580393 1155 -0.299137 0.000518 -0.95421
-49.0854514212935 54.5298713984141 1147 -0.429668 0.575282 -0.696015
-45.9976216762514 57.7080370831421 1148 -0.573913 0.452498 -0.682546
-39.528691515814 57.4064271332302 1142 -0.64807 0.398751 -0.648848
-33.0377314013801 56.9540122083624 1133 -0.69576 0.276057 -0.663107
-29.8422824234901 56.7529389084211 1129 -0.687983 0.299252 -0.661157
-23.5378115027381 56.4010606335239 1122 -0.709492 0.398372 -0.58131
-17.3096972742902 59.0898149271648 1115 -0.758685 0.383243 -0.526803
-14.2178752359557 58.8778335283229 1111 -0.832821 0.308328 -0.459721
-11.0975176818026 55.3956941338176 1102 -0.779976 0.31962 -0.538034
-5.04560854811732 57.9239172335346 1093 0.272645 -0.548308 -0.790584
0.906452183109457 57.3409683867195 1082 -0.576784 0.393291 -0.71599
6.78885827144515 57.1819823375882 1079 -0.217445 0.31312 -0.924485
12.6855234833879 54.2897909841407 1080 0.433182 0.295272 -0.851568
18.7134961259238 57.6589404849823 1088 0.732885 0.297127 -0.612041
21.7402798146409 57.8179265341137 1091 0.755285 0.261565 -0.600939
27.8936955945335 58.2418893317974 1099 0.780518 0.291833 -0.552834
31.0312357846097 55.4962307837882 1104 0.750187 0.321422 -0.577848
37.2874407478812 58.8778335283229 1111 0.613902 0.472753 -0.632162
40.4260324503293 59.0368195774543 1114 0.619251 0.517335 -0.590671
46.7105591732242 56.250255658568 1119 0.573763 0.456945 -0.679704
49.8510401442207 56.3507923085386 1121 0.452509 0.427202 -0.782773
56.1148021816864 56.5015972834946 1124 0.51164 0.466357 -0.72162
62.5774232678924 56.8032072334065 1130 0.671992 0.443491 -0.593078
