ply
format ascii 1.0
element vertex 926
property float x
property float y
property float z
property uchar red
property uchar green
property uchar blue
element face 0
property list uchar int vertex_indices
end_header
-34.4086066807778 -69.1504152454397 675 249 243 226
-34.2047038263732 -66.9108014163751 671 255 242 219
-34.5105581079801 -71.2015011036095 677 249 243 226
-36.4641593235567 -73.2634950606798 679 255 245 226
-32.5196163024281 -63.5339261915712 674 162 151 116
-32.5196163024281 -69.0479701858168 674 255 251 235
-32.4231189246761 -65.1779588359746 672 246 233 209
-30.7271233018304 -63.6281901770186 675 162 153 112
-29.1003548094853 -60.3907564780569 680 159 143 110
-27.4062484551881 -57.0154263980454 684 172 160 129
-27.4463160698887 -53.3627584111419 685 154 140 107
-27.4863836845892 -55.3113992096888 686 162 150 119
-27.4062484551881 -58.8807113100454 684 158 143 113
-29.0147655306338 -62.0620593697117 678 177 159 125
-27.2459779963858 -60.3907564780569 680 154 138 105
-25.6903259030898 -49.8440779006304 688 161 139 105
-25.6156447231389 -51.5699212867882 686 158 138 104
-25.5409635431881 -57.0154263980454 684 173 161 130
-25.5783041331635 -55.2307703478671 685 163 148 118
-25.5409635431881 -53.2848565740454 684 154 138 105
-25.5036229532127 -58.7946283987734 683 162 147 117
-23.7102921964383 -55.2307703478671 685 158 143 113
-23.7102921964383 -53.3627584111419 685 159 141 108
-23.7795193269389 -51.6450960991596 687 159 139 105
-23.8141328921891 -49.8440779006304 688 162 140 106
-23.8833600226897 -48.107326415572 690 161 139 105
-23.8833600226897 -46.2256793552211 690 160 138 102
-23.91797358794 -44.408299008341 691 160 138 102
-23.91797358794 -42.523924923265 691 159 137 103
-23.9525871531902 -40.6983635022095 692 160 138 102
-23.9872007184405 -38.8673480317037 693 162 140 104
-24.0910414141913 -37.137595740888 696 161 139 103
-24.1256549794416 -35.2902181220314 697 158 136 100
-24.2294956751924 -33.5331955839643 700 161 139 103
-24.1948821099422 -31.5791007359671 699 160 138 104
-24.2641092404427 -29.7578114844292 701 154 139 109
-52.1080659279532 -81.9769735018882 690 253 250 243
-46.2611111610444 -79.7470858917915 687 255 253 243
-54.0679589491567 -82.095780709862 691 204 199 193
-71.4384824483569 -78.7804451738037 695 150 153 150
-50.2264188676023 -81.9769735018882 690 254 251 244
-48.3447718072514 -81.9769735018882 690 251 250 244
-50.2264188676023 -83.8586205622391 690 171 172 168
-44.387645174869 -79.7470858917915 687 255 251 240
-52.2591038002082 -84.1016890276369 692 165 166 162
-54.1462049100094 -84.1016890276369 692 176 179 176
-56.4381709476993 -84.7093601911314 697 173 176 173
-48.4148366939286 -83.980154794938 691 231 232 226
-42.5760630011952 -79.8631660750401 688 255 251 237
-46.5304626088525 -82.095780709862 691 253 252 246
-40.5815564147414 -77.7602667470926 686 250 242 225
-36.5715648002093 -75.3363971166507 681 252 243 222
-32.6161136801801 -71.0963290192614 676 255 252 236
-32.3748702358001 -66.9108014163751 671 255 249 233
-30.6360799735287 -67.1102374861705 673 255 252 238
-30.7726449659813 -69.2528603050626 676 255 252 241
-30.6816016376795 -65.3719408563197 674 247 234 210
-27.1658427669847 -62.0620593697117 678 177 159 125
-34.7144609623847 -75.3363971166507 681 250 242 225
-32.7608597468081 -73.2634950606798 679 255 252 235
-34.6634852487836 -73.371394169753 680 249 243 226
-38.7672472163426 -77.8736199056161 687 251 241 222
-46.5304626088525 -83.980154794938 691 248 247 241
-44.6460885237765 -82.095780709862 691 255 250 243
-40.6998699902946 -79.8631660750401 688 255 247 230
-28.843586972931 -69.0479701858168 674 255 253 243
-28.8007923335053 -67.1102374861705 673 254 250 239
-30.8181666301321 -71.2015011036095 677 255 252 241
-28.8863816123567 -63.6281901770186 675 163 152 121
-28.8863816123567 -65.4689318664923 675 252 242 217
-25.3916011832864 -60.3907564780569 680 156 140 107
-27.045639922883 -67.309673555966 675 254 250 239
-27.045639922883 -65.4689318664923 675 250 239 216
-27.045639922883 -63.6281901770186 675 165 153 126
-25.2795794133601 -61.9705224089895 677 177 157 123
-23.5026108049367 -60.3019465420597 679 157 141 108
-23.6064515006875 -56.8487146249517 682 173 159 126
-23.6064515006875 -58.7085454875014 682 164 150 117
-21.8422802597132 -55.2307703478671 685 159 143 110
-21.8741668002383 -53.4406602482385 686 157 137 103
-21.9060533407634 -51.6450960991596 687 159 137 101
-21.9060533407634 -49.7716301129841 687 160 138 102
-21.9379398812885 -47.9678848897298 688 162 140 104
-21.9698264218137 -46.1586856170251 689 160 138 104
-22.0017129623388 -44.3440322948702 690 160 138 102
-22.0335995028639 -42.523924923265 691 162 140 106
-22.0973725839142 -40.75717616623 693 162 140 104
-22.1292591244393 -38.923433670999 694 161 139 103
-22.1611456649644 -37.0842371263178 695 161 139 103
-22.1930322054896 -35.2395865321863 696 159 137 101
-22.2568052865398 -33.4373864537244 698 161 139 105
-22.288691827065 -31.5791007359671 699 161 139 105
-24.2641092404427 -27.8461671521017 701 166 154 125
-26.3624565226473 -22.2689462389645 706 154 138 105
-20.0617468703879 -49.8440779006304 688 162 140 104
-20.0909063861879 -48.0376056526509 689 163 141 105
-20.0909063861879 -51.7954457239024 689 161 139 103
-20.0325873545879 -53.518562085335 687 159 139 105
-20.0909063861879 -46.1586856170251 689 163 141 105
-20.1492254177879 -42.523924923265 691 163 141 107
-20.1492254177879 -44.408299008341 691 161 139 103
-20.2367039651878 -40.8159888302505 694 161 139 105
-20.2367039651878 -38.923433670999 694 161 139 105
-20.2658634809878 -37.0842371263178 695 161 139 103
-20.2658634809878 -35.1889549423412 695 162 140 104
-20.2950229967878 -33.3415773234845 696 160 138 104
-22.3524649081152 -29.7578114844292 701 155 140 110
-24.3679499361935 -26.0455122184323 704 168 161 131
-24.3679499361935 -24.1256868119293 704 167 158 128
-30.341399352831 -14.629731368757 709 170 158 125
-28.3278035933011 -16.5164692136984 707 171 160 127
-32.4114248754122 -10.8083511137542 712 152 138 104
-20.3533420283878 -31.5339231955723 698 160 138 104
-22.3524649081152 -27.8461671521017 701 164 152 123
-26.3624565226473 -20.3436667830113 706 159 141 107
-24.4371770666941 -22.2689462389645 706 157 141 108
-24.4025635014438 -20.3148513909674 705 155 139 105
-26.3997971126228 -16.5164692136984 707 173 162 129
-26.3997971126228 -18.4444756943768 707 161 150 115
-22.4162379891655 -26.0085157522129 703 166 159 129
-22.4162379891655 -24.0914173704351 703 166 157 127
-20.4116610599877 -29.7153609687596 700 157 140 110
-28.4480064374028 -14.6503656866255 710 168 157 122
-30.3841939922567 -12.7141781317717 710 154 140 107
-28.4480064374028 -12.7141781317717 710 155 141 107
-30.4269886316824 -10.7931708453361 711 153 139 105
-32.3659032112614 -8.85425626575708 711 173 155 121
-30.4269886316824 -8.85425626575708 711 171 155 121
-44.6182288137526 -7.01260387585713 721 156 143 114
-20.4408205757877 -27.8461671521017 701 164 152 123
-20.4699800915877 -25.9715192859936 702 166 159 129
-22.4481245296906 -22.2058614054264 704 156 142 109
-22.4800110702157 -20.3148513909674 705 155 139 105
-24.5064041971946 -18.4705640616956 708 159 147 114
-26.4744782925736 -14.629731368757 709 166 155 120
-24.5064041971946 -16.5398305562921 708 173 162 129
-26.4744782925736 -12.6962708386283 709 152 138 104
-20.4699800915877 -24.0571479289409 702 168 159 129
-28.528141666804 -10.8083511137542 712 152 138 104
-28.4880740521034 -8.85425626575708 711 172 156 122
-42.8295143502519 -7.04178253276083 724 157 144 115
-40.9115782122975 -7.05150875172873 725 161 146 117
-18.1855538594873 -49.8440779006304 688 159 137 101
-18.1855538594873 -47.9678848897298 688 164 142 106
-18.2119863505622 -46.1586856170251 689 161 139 103
-18.238418841637 -44.3440322948702 690 161 139 103
-18.2912838237867 -42.5854646120107 692 162 140 106
-18.3441488059363 -40.8159888302505 694 160 138 104
-18.3441488059363 -38.923433670999 694 160 138 102
-18.3705812970112 -37.0842371263178 695 160 138 102
-18.3705812970112 -35.1889549423412 695 158 136 100
-18.3705812970112 -33.2936727583645 695 160 138 102
-18.4234462791608 -31.4887456551775 697 157 135 101
-18.4763112613105 -29.6729104530899 699 153 136 106
-20.5282991231877 -22.2058614054264 704 158 144 110
-22.543784151266 -18.4444756943768 707 161 149 116
-24.5410177624449 -14.629731368757 709 167 157 122
-26.511818882549 -10.7779905769179 710 151 137 103
-24.5410177624449 -12.6962708386283 709 154 140 106
-26.511818882549 -8.84180302206403 710 173 157 123
-34.7390559907244 -7.00287765688922 720 163 148 119
-36.804465220032 -7.02233009482503 722 164 149 120
-38.8270798099139 -7.03205631379293 723 163 148 119
-32.7755981886191 -7.00287765688922 720 166 151 121
-18.555608734535 -27.8858906430462 702 160 147 118
-18.555608734535 -25.9715192859936 702 165 158 128
-18.5820412256099 -24.0914173704351 703 164 157 127
-20.5574586389876 -20.3148513909674 705 154 136 102
-22.543784151266 -16.5164692136984 707 171 160 127
-20.6157776705876 -18.4444756943768 707 161 147 113
-22.5756706917911 -14.6090970508885 708 171 160 127
-24.5756313276952 -10.7779905769179 710 155 139 105
-20.5866181547876 -16.4931078711048 706 169 158 125
-22.6394437728414 -12.7141781317717 710 155 141 107
-24.5410177624449 -8.82934977837099 709 172 158 124
-21.7466206381378 -56.8487146249517 682 174 160 127
-20.003427838788 -55.3113992096888 686 156 140 107
-16.4278881803352 -40.75717616623 693 160 138 104
-16.4278881803352 -38.8673480317037 693 158 136 100
-16.4752991130345 -37.0842371263178 695 160 138 102
-16.4515936466849 -35.1383233524961 694 159 137 101
-16.4990045793842 -33.3415773234845 696 161 139 103
-16.3567717812861 -42.4623852345193 690 160 138 104
-16.3804772476358 -44.408299008341 691 161 139 105
-16.3330663149364 -46.1586856170251 689 160 138 102
-16.5464155120836 -31.5339231955723 698 160 138 104
-16.593826444783 -29.7153609687596 700 153 136 106
-18.1855538594873 -51.720270911531 688 161 139 103
-21.7147340976126 -58.6224625762294 681 163 149 116
-18.1591213684125 -53.518562085335 687 161 141 105
-16.3093608485867 -47.9678848897298 688 161 139 103
-16.6175319111327 -27.8461671521017 701 160 147 118
-16.6412373774824 -25.9715192859936 702 167 160 130
-18.6349062077595 -22.2374038221955 705 159 145 111
-18.6349062077595 -20.3148513909674 705 155 137 101
-16.6886483101818 -22.2058614054264 704 162 148 114
-18.6613386988344 -18.418387327058 706 159 143 109
-20.6449371863876 -14.6090970508885 708 168 157 124
-30.8121403865138 -7.00287765688922 720 160 145 115
-22.6713303133665 -10.7931708453361 711 153 137 104
-20.7032562179875 -12.7141781317717 710 151 137 103
-44.7106993610034 -84.1016890276369 692 253 250 244
-38.823676979394 -79.8631660750401 688 253 243 224
-42.8854820637039 -84.2232232603358 693 254 249 242
-42.8854820637039 -82.3333951258095 693 254 250 240
-40.936497141401 -82.2145879178357 692 252 247 236
-36.8400784918408 -77.7602667470926 686 252 243 222
-28.843586972931 -70.8859848505654 674 255 252 242
-29.0147655306338 -73.1555959516066 678 255 248 235
-32.8573571245602 -75.3363971166507 681 253 245 228
-31.0002532867356 -73.4792932788261 681 255 254 238
-27.045639922883 -69.1504152454397 675 255 252 242
-34.9693395303905 -77.7602667470926 686 251 242 221
-25.2048982334093 -67.309673555966 675 252 248 237
-25.2048982334093 -65.4689318664923 675 242 231 208
-25.2048982334093 -63.6281901770186 675 167 155 128
-31.0457749508864 -75.447023250449 682 255 248 231
-26.9655046934819 -70.7808127662174 673 255 251 241
-27.1658427669847 -73.1555959516066 678 252 244 228
-25.2048982334093 -69.1504152454397 675 254 250 240
-29.1859440883367 -75.447023250449 682 250 242 225
-33.0986005689402 -77.7602667470926 686 255 245 226
-23.3641565439356 -63.6281901770186 675 170 157 128
-23.4333836744361 -61.9705224089895 677 177 157 123
-21.6190744760373 -62.0620593697117 678 174 154 120
-21.6509610165624 -60.3019465420597 679 156 140 107
-23.3641565439356 -65.4689318664923 675 243 230 206
-21.555301394987 -63.722454162466 676 175 160 131
-19.8576302597881 -58.6224625762294 681 167 153 120
-19.886789775588 -56.8487146249517 682 173 159 126
-36.9474839684934 -79.8631660750401 688 254 243 222
-33.1950979466922 -79.8631660750401 688 254 243 222
-35.0712909575928 -79.8631660750401 688 255 244 223
-37.1622949217986 -82.2145879178357 692 252 242 225
-39.0493960315998 -82.2145879178357 692 251 243 226
-31.2278616074899 -77.7602667470926 686 252 242 223
-31.2733832716407 -79.7470858917915 687 253 242 221
-25.1302170534584 -70.7808127662174 673 251 247 236
-27.2860456110864 -75.3363971166507 681 248 240 223
-25.2795794133601 -73.0476968425335 677 250 242 225
-23.3295429786853 -67.2099555210683 674 253 247 231
-23.294929413435 -70.7808127662174 673 253 247 231
-23.3295429786853 -69.0479701858168 674 255 250 237
-21.4915283139367 -67.2099555210683 674 251 243 226
-21.5234148544619 -65.4689318664923 675 239 226 202
-19.7701517123881 -62.0620593697117 678 172 154 120
-19.7701517123881 -60.2131366060626 678 158 142 109
-18.0269589130383 -56.8487146249517 682 170 156 123
-18.1062563862628 -55.2307703478671 685 159 145 112
-19.7118326807881 -63.722454162466 676 175 160 131
-17.8947964576641 -61.9705224089895 677 172 154 120
-17.9740939308886 -58.5363796649575 680 170 156 123
-17.921228948739 -60.2131366060626 678 156 140 107
-16.2619499158873 -49.6991823253378 686 159 138 100
-16.285655382237 -51.6450960991596 687 163 142 104
-16.2619499158873 -53.4406602482385 686 159 139 103
-16.1671280504886 -56.8487146249517 682 170 158 125
-16.2382444495376 -55.2307703478671 685 160 148 115
-16.1197171177892 -58.5363796649575 680 166 154 123
-14.3702325128125 -53.3627584111419 685 156 138 102
-14.3702325128125 -55.2307703478671 685 162 150 119
-14.3702325128125 -51.4947464744168 685 159 140 102
-14.391210954437 -49.6991823253378 686 161 140 102
-14.4331678376861 -47.9678848897298 688 161 139 103
-14.4331678376861 -46.0916918788292 688 160 138 102
-14.4541462793106 -44.2797655813994 689 159 137 101
-14.4751247209352 -42.4623852345193 690 159 137 103
-14.5590384874334 -40.8159888302505 694 160 138 104
-14.5590384874334 -38.923433670999 694 161 139 103
-14.5800169290579 -37.0842371263178 695 162 140 104
-14.5590384874334 -35.1383233524961 694 160 138 102
-14.6009953706825 -33.3415773234845 696 159 137 101
-14.6429522539315 -31.5339231955723 698 161 139 103
-14.6849091371806 -29.7153609687596 700 157 139 106
-14.7058875788052 -27.8461671521017 701 160 145 115
-16.6412373774824 -24.0571479289409 702 166 159 129
-48.7651611273145 -86.4858351671343 696 188 191 188
-46.9344897805647 -86.6100964245583 697 178 179 175
-41.0548107169542 -84.3447574930347 694 251 247 237
-50.8815460702232 -86.8586189394064 699 175 178 175
-45.0337535471378 -86.6100964245583 697 195 194 190
-39.1058257946512 -84.2232232603358 693 250 244 228
-62.4969958869929 -83.2838527895995 701 177 178 174
-53.2408499698652 -87.6041864839507 705 168 171 168
-58.7574072326408 -85.3170313546259 702 164 167 164
-43.1949011262126 -86.7343576819824 698 252 247 241
-41.2322810802839 -86.6100964245583 697 251 246 239
-35.3261695255986 -84.2232232603358 693 251 241 222
-37.2159976601249 -84.2232232603358 693 250 242 225
-35.3261695255986 -82.3333951258095 693 254 243 222
-39.2186853207541 -86.3615739097102 695 251 247 237
-25.4289417732618 -75.3363971166507 681 250 240 221
-23.4679972396864 -73.1555959516066 678 252 244 227
-21.4915283139367 -69.0479701858168 674 255 248 231
-21.4596417734116 -70.7808127662174 673 251 243 226
-21.5871879355121 -73.0476968425335 677 251 243 226
-17.8683639665893 -63.722454162466 676 176 161 132
-19.6826731649882 -65.4689318664923 675 241 228 201
-29.442711924891 -79.8631660750401 688 255 244 223
-29.442711924891 -77.9869730641395 688 251 241 222
-23.5718379354372 -75.3363971166507 681 250 240 223
-31.500991592395 -82.2145879178357 692 254 243 222
-33.3880927021962 -82.2145879178357 692 254 243 222
-43.2567849387143 -88.7648092222836 699 160 158 156
-37.3234031367775 -86.3615739097102 695 249 245 234
-19.6243541333882 -67.1102374861705 673 251 240 219
-19.6243541333882 -68.945525126194 673 250 240 221
-19.6243541333882 -70.7808127662174 673 248 240 223
-16.0486007187401 -61.9705224089895 677 173 155 121
-16.0723061850898 -60.2131366060626 678 158 142 109
-17.7890664933648 -67.1102374861705 673 253 242 221
-17.8154989844396 -69.0479701858168 674 252 241 220
-17.8419314755144 -70.9911569349134 675 250 240 223
-17.8154989844396 -65.3719408563197 674 241 228 199
-19.7409921965881 -73.0476968425335 677 252 244 227
-16.0248952523904 -63.722454162466 676 176 161 132
-14.2653403046898 -62.2451332911563 680 174 156 123
-14.2443618630652 -60.3019465420597 679 155 139 106
-14.2653403046898 -58.5363796649575 680 161 149 118
-14.3072971879388 -56.8487146249517 682 173 161 130
-12.4657177422885 -56.9320705114986 683 172 161 130
-12.5022205760873 -53.3627584111419 685 156 140 106
-12.5204719929867 -55.3113992096888 686 167 156 125
-12.5204719929867 -51.5699212867882 686 161 141 107
-12.5387234098861 -49.7716301129841 687 160 138 102
-12.5934776605843 -48.107326415572 690 163 141 105
-12.5752262436849 -46.1586856170251 689 160 139 101
-12.5934776605843 -44.3440322948702 690 161 139 103
-12.5934776605843 -42.4623852345193 690 161 139 103
-12.6482319112825 -40.75717616623 693 158 136 100
-12.6664833281819 -38.923433670999 694 163 142 104
-12.6847347450813 -37.0842371263178 695 164 143 105
-12.6482319112825 -35.087691762651 693 159 138 100
-12.6847347450813 -33.2936727583645 695 157 136 98
-12.7394889957795 -31.5339231955723 698 159 137 101
-12.7759918295783 -29.7153609687596 700 155 135 101
-14.7268660204297 -25.9715192859936 702 170 161 131
-18.6349062077595 -16.4697465285112 705 167 155 122
-10.6497330315364 -51.5699212867882 686 156 138 104
-10.6807818158849 -49.8440779006304 688 161 139 103
-10.7118306002334 -48.107326415572 690 163 141 105
-10.7118306002334 -46.2256793552211 690 160 138 102
-10.6342086393621 -55.2307703478671 685 169 158 127
-10.6342086393621 -53.3627584111419 685 158 142 109
-10.6963062080591 -44.2797655813994 689 162 140 104
-10.7118306002334 -42.4623852345193 690 162 140 104
-10.7428793845819 -40.6983635022095 692 160 138 102
-10.7584037767561 -38.8673480317037 693 160 139 101
-10.7584037767561 -36.9775198971773 693 162 141 101
-10.7428793845819 -35.0370601728059 692 159 138 98
-10.7739281689304 -33.2457681932446 694 158 137 99
-10.8360257376274 -31.5339231955723 698 159 137 101
-12.7759918295783 -27.8064436611572 700 157 143 110
-14.7268660204297 -24.0571479289409 702 167 160 130
-16.6886483101818 -20.2860359989234 704 155 137 101
-14.7688229036788 -22.2058614054264 704 162 151 116
-16.7360592428811 -18.418387327058 706 153 137 103
-18.714203680984 -14.6090970508885 708 168 156 123
-22.7032168538916 -8.86670950945013 712 170 156 123
-12.8124946633771 -25.9715192859936 702 169 160 130
-16.7360592428811 -16.4931078711048 706 161 149 116
-14.7688229036788 -20.2860359989234 704 155 137 101
-14.8107797869279 -18.418387327058 706 157 139 103
-16.8071756419302 -14.629731368757 709 170 158 125
-18.7670686631337 -12.7141781317717 710 151 137 104
-20.7615752495875 -10.8083511137542 712 152 136 103
-12.8307460802765 -24.0914173704351 703 168 161 131
-10.8825989141502 -29.7578114844292 701 156 136 102
-10.8981233063244 -27.8858906430462 702 154 137 107
-20.7615752495875 -8.86670950945013 712 170 156 123
-10.8981233063244 -25.9715192859936 702 165 156 126
-10.9291720906729 -24.1256868119293 704 169 160 130
-12.8855003309747 -22.2689462389645 706 162 151 116
-12.8855003309747 -20.3436667830113 706 155 137 101
-14.8317582285524 -16.5164692136984 707 159 145 112
-12.903751747874 -18.4444756943768 707 156 136 100
-16.8308811082799 -12.7141781317717 710 154 138 105
-18.8463661363582 -10.8235313821724 713 152 136 103
-14.8946935534261 -14.6503656866255 710 172 160 127
-18.8463661363582 -8.87916275314318 713 169 155 122
-28.8887501991091 -7.01260387585713 721 159 147 116
-8.77899407008607 -49.6991823253378 686 160 138 102
-8.77899407008607 -51.5699212867882 686 155 139 105
-8.81738617243338 -48.0376056526509 689 161 139 103
-8.83018353988249 -46.2256793552211 690 162 141 103
-8.83018353988249 -44.3440322948702 690 161 140 102
-8.81738617243338 -42.4008455457736 689 158 139 101
-8.8557782747807 -40.6983635022095 692 159 140 102
-8.8557782747807 -38.8112623924083 692 159 140 102
-8.8685756422298 -36.9775198971773 693 159 138 98
-8.8685756422298 -35.087691762651 693 160 139 99
-8.90696774457712 -33.3415773234845 696 158 137 97
-8.94535984692443 -31.5791007359671 699 156 135 97
-8.95815721437354 -29.7153609687596 700 156 136 102
-8.97095458182264 -27.8461671521017 701 156 139 109
-12.9220031647734 -16.5398305562921 708 157 143 110
-16.8545865746296 -10.7931708453361 711 151 135 101
-16.8545865746296 -8.85425626575708 711 170 154 121
-14.9156719950506 -12.732085424915 711 155 141 108
-26.9599059622541 -7.02233009482503 722 160 148 117
-24.9563805454482 -7.01260387585713 721 157 145 114
-22.9583091780927 -7.00287765688922 720 158 147 116
-8.98375194927175 -25.9715192859936 702 169 157 128
-10.9757452671957 -22.3004886557336 707 164 152 119
-10.9757452671957 -20.3724821750552 707 153 135 99
-10.9757452671957 -18.4444756943768 707 158 138 102
-12.9585059985722 -14.6503656866255 710 169 157 126
-10.9912696593699 -16.5398305562921 708 155 141 108
-14.9156719950506 -10.7931708453361 711 153 137 103
-14.9156719950506 -8.85425626575708 711 171 155 121
-16.9494084400283 -6.95424656204972 715 165 153 122
-12.9767574154716 -12.732085424915 711 163 149 116
-12.9767574154716 -10.7931708453361 711 152 136 102
-12.4474663253891 -58.7085454875014 682 162 150 119
-10.6031598550136 -56.9320705114986 683 170 159 128
-6.9686771649795 -40.6983635022095 692 158 139 101
-6.97874750770346 -38.8673480317037 693 159 140 102
-6.98881785042742 -37.0308785117476 694 159 138 98
-6.99888819315138 -35.1889549423412 695 160 139 99
-7.02909922132326 -33.4373864537244 698 160 139 99
-6.94853647953159 -44.3440322948702 690 162 141 103
-6.94853647953159 -42.4623852345193 690 156 137 99
-6.91832545135971 -47.8981641268086 687 159 137 101
-6.92839579408367 -46.0916918788292 688 161 140 102
-7.04923990677117 -31.6242782763619 700 159 138 100
-7.04923990677117 -29.7153609687596 700 159 137 101
-7.05931024949513 -27.8461671521017 701 157 139 106
-14.2024049798161 -63.8167181479135 677 178 166 135
-12.4109634915903 -60.3907564780569 680 158 142 109
-8.76619670263696 -53.3627584111419 685 158 146 113
-8.77899407008607 -55.3113992096888 686 171 159 130
-6.90825510863575 -49.6991823253378 686 160 138 102
-9.03494141906817 -24.1942256949178 706 169 160 130
-7.06938059221909 -25.9715192859936 702 166 154 125
-9.04773878651727 -18.4444756943768 707 158 138 102
-9.06053615396638 -20.4012975670991 708 155 137 101
-9.06053615396638 -22.3320310725027 708 163 149 116
-9.04773878651727 -16.5164692136984 707 156 140 107
-7.10966196311493 -24.1942256949178 706 168 159 129
-11.0223184437184 -14.6503656866255 710 171 159 128
-20.9656918601874 -6.99315143792132 719 160 149 118
-12.9767574154716 -8.85425626575708 711 167 149 115
-18.9785285917324 -6.98342521895342 718 162 150 119
-14.9995857615488 -6.95424656204972 715 167 155 124
-11.0378428358927 -10.7931708453361 711 153 137 103
-11.0378428358927 -12.732085424915 711 166 152 119
-41.4097514436137 -88.8917975044328 700 152 151 147
-39.3879746099085 -88.6378209401344 698 236 233 227
-33.4845900799482 -84.3447574930347 694 253 241 222
-29.5710958431681 -82.095780709862 691 255 244 223
-37.4845113517564 -88.6378209401344 698 255 251 244
-35.5810480936043 -88.6378209401344 698 251 247 237
-35.5300723800032 -86.6100964245583 697 249 245 231
-31.5920349206967 -84.3447574930347 694 254 243 222
-27.5665189139904 -77.9869730641395 688 254 243 222
-27.5665189139904 -79.8631660750401 688 254 243 222
-21.6509610165624 -75.1151448490541 679 250 242 225
-19.7701517123881 -75.0045187152558 678 253 247 230
-25.6903259030898 -77.9869730641395 688 253 242 221
-23.7449057616886 -77.7602667470926 686 252 241 220
-15.9537788533414 -68.945525126194 673 253 242 221
-16.0248952523904 -71.0963290192614 676 249 241 224
-15.9537788533414 -65.2749498461471 673 237 224 195
-17.921228948739 -73.1555959516066 678 250 244 227
-21.810393719188 -77.5335604300457 684 250 240 221
-19.915949291388 -77.4202072715222 683 254 248 231
-17.921228948739 -75.0045187152558 678 253 249 233
-21.8741668002383 -79.6310057085429 686 252 242 223
-23.8141328921891 -79.8631660750401 688 253 242 221
-25.7650070830406 -80.0953264415373 690 255 244 221
-25.802347673016 -82.095780709862 691 253 242 221
-27.7267893727926 -82.2145879178357 692 254 243 222
-15.906367920642 -66.9108014163751 671 255 244 221
-14.160448096567 -65.4689318664923 675 236 224 195
-12.3379578239927 -63.722454162466 676 178 166 135
-12.4109634915903 -62.2451332911563 680 176 158 124
-14.160448096567 -69.1504152454397 675 253 242 221
-14.0975127716934 -67.0105194512728 672 254 241 218
-12.3197064070933 -65.4689318664923 675 237 225 196
-10.5565866784909 -60.3907564780569 680 159 143 110
-10.5876354628394 -58.7085454875014 682 158 146 115
-29.6566851220195 -84.2232232603358 693 253 242 221
-27.7668569874932 -84.2232232603358 693 251 241 222
-33.7258335243283 -86.8586189394064 699 251 243 226
-25.9143694429423 -84.3447574930347 694 251 241 222
-23.9872007184405 -82.3333951258095 693 251 242 221
-18.0533914041131 -77.4202072715222 683 255 251 237
-19.974268322988 -79.5149255252943 685 251 245 228
-16.1197171177892 -75.2257709828524 680 255 251 237
-16.1197171177892 -73.371394169753 680 252 246 230
-14.2024049798161 -71.2015011036095 677 249 241 224
-12.2832035732945 -67.1102374861705 673 255 242 218
-12.3379578239927 -69.2528603050626 676 254 243 222
-10.4944891097939 -63.722454162466 676 183 171 140
-10.5565866784909 -62.2451332911563 680 177 159 125
-8.74060196773875 -58.7946283987734 683 156 141 111
-8.74060196773875 -56.9320705114986 683 172 160 131
-10.4944891097939 -65.5659228766649 676 236 224 195
-10.4634403254454 -67.2099555210683 674 255 243 219
-8.63822302814591 -63.6281901770186 675 183 171 140
-8.70220986539144 -62.2451332911563 680 176 158 124
-8.70220986539144 -60.3907564780569 680 157 141 108
-6.90825510863575 -51.5699212867882 686 154 138 104
-6.90825510863575 -53.4406602482385 686 160 148 115
-6.90825510863575 -55.3113992096888 686 174 162 133
-6.88811442318783 -57.0154263980454 684 172 161 130
-6.86797373773991 -58.7085454875014 682 155 141 108
-6.847833052292 -62.2451332911563 680 176 158 124
-6.847833052292 -60.3907564780569 680 158 142 108
-5.03017282918662 -53.3627584111419 685 165 153 122
-5.03751614718543 -51.5699212867882 686 155 139 106
-5.03751614718543 -55.3113992096888 686 172 163 133
-5.015486193189 -56.9320705114986 683 170 159 128
-5.03017282918662 -49.6267345376916 685 161 139 105
-5.04485946518425 -47.8981641268086 687 160 138 102
-5.05220278318306 -46.0916918788292 688 160 139 101
-5.06688941918068 -44.3440322948702 690 161 140 102
-5.06688941918068 -42.4623852345193 690 159 140 102
-5.08157605517831 -40.6983635022095 692 159 140 102
-5.09626269117593 -38.923433670999 694 162 141 103
-5.11094932717356 -37.137595740888 696 161 140 102
-5.11094932717356 -35.2395865321863 696 159 138 98
-5.13297928117 -33.4852910188443 699 158 137 97
-5.13297928117 -31.5791007359671 699 159 138 100
-5.14032259916881 -29.7153609687596 700 158 136 100
-5.14032259916881 -27.8064436611572 700 157 139 106
-5.16235255316525 -26.0085157522129 703 167 155 126
-47.4058548142289 -89.3997506330296 704 197 197 197
-45.3568077332722 -89.1457740687312 702 188 188 188
-39.6136936621142 -91.0601454257839 702 183 182 178
-37.6993223050616 -91.0601454257839 702 179 178 172
-33.8705795909563 -89.1457740687312 702 252 248 234
-35.8869023752112 -91.3195760395325 704 197 194 188
-31.9106865697528 -87.1071414542545 701 249 241 224
-18.1062563862628 -79.5149255252943 685 252 248 232
-16.214538983188 -77.5335604300457 684 253 249 239
-14.2863187463143 -73.4792932788261 681 251 247 233
-14.2653403046898 -75.2257709828524 680 255 253 246
-12.3562092408921 -71.2015011036095 677 252 244 227
-10.5100135019681 -69.3553053646855 677 255 244 223
-8.63822302814591 -65.4689318664923 675 236 223 194
-24.0564278489411 -84.4662917257336 695 251 241 222
-22.0654860433891 -82.2145879178357 692 250 240 221
-16.2619499158873 -79.6310057085429 686 255 252 242
-14.3492540711879 -77.5335604300457 684 255 252 245
-26.1010723928194 -86.8586189394064 699 246 242 226
-41.8830057458265 -91.8384372670299 708 182 182 182
-29.9990422374253 -87.1071414542545 701 249 241 224
-10.4944891097939 -71.0963290192614 676 253 245 228
-8.6126282932477 -67.1102374861705 673 255 242 218
-6.80755168139616 -63.722454162466 676 182 170 139
-8.65102039559502 -69.2528603050626 676 254 243 222
-8.63822302814591 -70.9911569349134 675 250 242 225
-12.4292149084897 -73.4792932788261 681 255 251 237
-12.4292149084897 -75.3363971166507 681 255 252 245
-10.5721110706651 -73.4792932788261 681 255 253 239
-6.7974813386722 -65.4689318664923 675 238 225 196
-4.99345623919256 -62.2451332911563 680 177 159 125
-4.99345623919256 -60.3907564780569 680 158 140 106
-5.015486193189 -58.7946283987734 683 158 142 109
-3.15292830591412 -58.7946283987734 683 155 139 106
-3.15292830591412 -56.9320705114986 683 170 159 128
-3.16216089246145 -55.2307703478671 685 172 163 133
-3.15754459918778 -53.2848565740454 684 168 156 125
-3.17139347900878 -51.6450960991596 687 155 139 106
-3.16677718573512 -49.6991823253378 686 161 139 105
-3.17600977228245 -47.9678848897298 688 160 138 102
-3.17600977228245 -46.0916918788292 688 159 138 100
-3.18524235882978 -44.3440322948702 690 162 141 103
-3.18985865210345 -42.523924923265 691 159 140 102
-3.19447494537712 -40.6983635022095 692 157 138 100
-3.20370753192445 -38.923433670999 694 160 139 101
-3.21294011847178 -37.137595740888 696 161 140 102
-3.21755641174545 -35.2902181220314 697 156 135 95
-3.22678899829278 -33.4852910188443 699 159 138 98
-3.23140529156645 -31.6242782763619 700 161 140 102
-3.23602158484011 -27.8461671521017 701 158 140 107
-3.24063787811378 -29.8002620000989 702 157 135 99
-7.11973230583889 -22.3004886557336 707 156 142 109
-1.29225968718776 -53.2848565740454 684 161 149 118
-1.2960382242848 -49.6991823253378 686 159 137 101
-1.29792749283332 -51.6450960991596 687 156 138 105
-1.30170602993036 -48.0376056526509 689 160 138 102
-1.29981676138184 -46.0916918788292 688 159 138 100
-1.30359529847888 -44.3440322948702 690 161 140 102
-1.29037041863924 -56.9320705114986 683 168 157 126
-1.29414895573628 -55.2307703478671 685 172 163 133
-1.30359529847888 -42.4623852345193 690 161 140 102
-1.30737383557592 -40.6983635022095 692 157 138 100
-1.31304164122148 -38.9795193102944 695 159 138 100
-1.31493090977 -37.137595740888 696 159 138 100
-1.31870944686704 -33.4373864537244 698 158 137 99
-1.32059871541556 -31.5791007359671 699 159 138 100
-7.11973230583889 -20.3724821750552 707 156 138 102
-5.18438250716169 -24.1942256949178 706 170 158 129
-7.11973230583889 -18.4444756943768 707 158 138 102
-7.11973230583889 -16.5164692136984 707 156 142 109
-9.07333352141548 -14.629731368757 709 173 161 128
-9.07333352141548 -12.6962708386283 709 167 153 120
-3.24987046466111 -26.0455122184323 704 161 149 120
-5.19906914315931 -16.5398305562921 708 155 141 108
-5.19906914315931 -18.4705640616956 708 157 137 101
-7.14994333401076 -14.6503656866255 710 172 160 129
-9.09892825631369 -10.7931708453361 711 152 136 102
-11.0533672280669 -8.86670950945013 712 163 145 111
-7.14994333401076 -12.7141781317717 710 168 154 121
-13.0680144999686 -6.96397278101762 716 169 155 122
-5.19906914315931 -20.4012975670991 708 155 137 101
-5.19906914315931 -22.3320310725027 708 157 143 110
-1.3243772525126 -29.7578114844292 701 155 135 99
-1.3243772525126 -27.8461671521017 701 155 137 104
-1.33004505815816 -26.0455122184323 704 164 152 123
-3.25910305120844 -24.1942256949178 706 169 157 128
-1.33193432670668 -24.1599562534236 705 168 156 127
-3.27295193102944 -20.4301129591431 709 157 139 103
-3.26833563775578 -22.3320310725027 708 159 148 117
-3.27295193102944 -18.4966524290144 709 156 136 100
-5.20641246115812 -14.629731368757 709 167 155 122
-9.1117256237628 -8.86670950945013 712 160 142 108
-7.16001367673472 -10.7931708453361 711 150 134 100
-5.21375577915694 -12.7141781317717 710 165 153 120
-7.17008401945868 -8.86670950945013 712 154 138 104
0.575538493342142 -51.6450960991596 687 155 137 104
0.575538493342142 -49.7716301129841 687 161 139 103
0.577214005695394 -48.0376056526509 689 158 136 100
0.573862980988889 -53.3627584111419 685 163 148 118
0.577214005695394 -46.1586856170251 689 160 139 101
0.578889518048646 -44.408299008341 691 161 140 102
0.57805176187202 -42.4623852345193 690 160 139 101
0.579727274225272 -40.6983635022095 692 159 138 100
0.581402786578524 -38.923433670999 694 161 140 102
-1.31682017831852 -35.2902181220314 697 160 139 101
0.583078298931777 -37.137595740888 696 158 137 99
0.585591567461655 -33.4852910188443 699 157 136 98
0.583916055108403 -35.2902181220314 697 161 140 102
0.586429323638281 -31.6242782763619 700 157 135 99
0.587267079814907 -29.7578114844292 701 156 136 100
0.587267079814907 -27.8461671521017 701 155 139 106
0.588942592168159 -26.0085157522129 703 167 155 126
-3.27295193102944 -16.5631918988857 709 155 141 108
-3.27295193102944 -14.629731368757 709 165 154 121
-5.22109909715575 -10.7931708453361 711 148 134 100
-19.2692859935556 -5.10241260296874 729 132 125 105
-17.1390521708259 -5.0604174375122 723 136 129 109
-15.1464348529206 -5.05341824326945 722 145 138 117
0.589780348344786 -24.1256868119293 704 168 157 126
-1.33760213235224 -22.3320310725027 708 162 151 120
-1.33949140090076 -20.4301129591431 709 154 136 100
-1.33949140090076 -18.4966524290144 709 157 137 101
-3.27756822430311 -12.7141781317717 710 169 158 123
-5.22109909715575 -8.85425626575708 711 150 134 100
-1.33949140090076 -16.5631918988857 709 159 147 114
-11.1775623654609 -7.00287765688922 720 172 156 123
-3.28218451757678 -10.7931708453361 711 149 135 101
-3.28218451757678 -8.85425626575708 711 152 136 102
-3.13907942609312 -60.3907564780569 680 162 144 110
-3.13446313281945 -62.153596330434 679 174 156 122
-1.29037041863924 -58.7946283987734 683 153 139 106
2.46326360312469 -42.523924923265 691 159 137 101
2.47039316492824 -40.75717616623 693 160 139 101
2.47039316492824 -38.8673480317037 693 160 139 101
2.47752272673178 -37.0842371263178 695 160 139 99
2.48108750763356 -35.2395865321863 696 159 138 98
2.49178185033887 -33.4852910188443 699 159 138 100
2.49178185033887 -31.5791007359671 699 159 138 100
2.46326360312469 -46.2926730934171 691 158 137 99
2.47039316492824 -44.5368324352827 693 160 139 101
2.44543969861583 -49.6991823253378 686 160 138 102
2.45969882222292 -48.107326415572 690 159 137 101
2.49534663124064 -29.7153609687596 700 155 135 99
2.49178185033887 -27.7667201702127 699 155 139 105
2.49891141214242 -25.9345228197742 701 166 155 124
-6.7974813386722 -69.1504152454397 675 252 241 220
-6.77734065322429 -67.1102374861705 673 254 241 217
-4.9567396491985 -65.4689318664923 675 235 222 193
-4.96408296719731 -63.722454162466 676 179 167 136
0.573025224812263 -55.1501414860454 684 173 161 132
0.572187468635637 -56.9320705114986 683 170 158 129
2.4490044795176 -51.6450960991596 687 158 140 107
0.591455860698038 -22.2689462389645 706 165 154 121
2.50604097394596 -24.0914173704351 703 166 157 126
0.593969129227916 -18.4966524290144 709 156 136 100
0.592293616874664 -20.3724821750552 707 156 138 102
-1.34138066944928 -14.6503656866255 710 171 160 127
0.593969129227916 -16.5631918988857 709 160 148 115
-1.34138066944928 -12.7141781317717 710 167 156 121
2.51673531665128 -22.2689462389645 706 167 156 123
-9.23969929825385 -7.02233009482503 722 167 151 117
-1.34515920654632 -10.8083511137542 712 148 135 98
-1.34515920654632 -8.86670950945013 712 158 142 108
-32.0017298980545 -89.2727623508804 703 251 244 231
-34.0635743464603 -91.5790066532812 706 243 238 231
-28.0873979050977 -87.1071414542545 701 248 240 223
-22.1611456649644 -84.4662917257336 695 250 242 225
-20.1783849335879 -82.2145879178357 692 251 241 224
-30.1274261557024 -89.3997506330296 704 249 243 227
-28.1675331344989 -89.2727623508804 703 248 244 228
-32.1382948905071 -91.5790066532812 706 248 244 234
-32.1382948905071 -93.5042861092345 706 194 193 187
-24.2294956751924 -86.9828801968305 700 255 252 236
-18.238418841637 -81.9769735018882 690 250 242 225
-10.5721110706651 -75.3363971166507 681 255 252 245
-14.4121893960616 -79.7470858917915 687 255 252 245
-6.80755168139616 -71.0963290192614 676 249 241 224
-8.68941249794233 -73.2634950606798 679 253 249 235
-8.70220986539144 -75.2257709828524 680 254 251 244
-6.82769236684408 -73.1555959516066 678 253 249 235
-12.5022205760873 -77.6469135885691 685 254 254 246
-12.5387234098861 -79.7470858917915 687 254 254 246
-10.6342086393621 -77.6469135885691 685 254 254 246
-18.3177163148615 -84.2232232603358 693 248 240 223
-14.5170816041843 -82.2145879178357 692 254 249 238
-16.4041827139855 -82.2145879178357 692 254 248 232
-20.2658634809878 -84.4662917257336 695 248 240 223
-4.96408296719731 -69.2528603050626 676 252 241 218
-4.94205301320087 -67.1102374861705 673 254 241 217
-3.11599795972479 -63.6281901770186 675 180 165 135
-3.11599795972479 -65.4689318664923 675 234 221 192
-4.97142628519612 -71.2015011036095 677 248 240 223
-3.10676537317745 -67.1102374861705 673 252 239 215
-1.28281334444516 -62.153596330434 679 174 156 122
-1.28470261299368 -60.3907564780569 680 159 143 109
-22.3205783675901 -86.9828801968305 700 255 252 238
-30.2558100739795 -91.7087219601555 707 251 247 236
-26.2130941627457 -89.1457740687312 702 252 248 234
-22.3843514486403 -89.1457740687312 702 255 251 240
-24.298722805693 -89.1457740687312 702 255 252 241
-16.4515936466849 -84.3447574930347 694 248 240 224
-18.4763112613105 -86.8586189394064 699 247 244 230
-20.4408205757877 -87.1071414542545 701 251 248 234
-16.5464155120836 -86.7343576819824 698 244 240 226
-14.5800169290579 -84.4662917257336 695 246 242 228
-8.75339933518786 -77.5335604300457 684 254 254 246
-10.6652574237106 -79.7470858917915 687 254 254 246
-8.77899407008607 -79.6310057085429 686 254 254 246
-6.847833052292 -75.2257709828524 680 255 252 245
-4.98611292119375 -73.2634950606798 679 252 248 232
-3.12523054627212 -71.2015011036095 677 249 241 224
-3.12523054627212 -69.3553053646855 677 251 240 219
-4.98611292119375 -75.1151448490541 679 254 252 242
-1.27336700170256 -65.3719408563197 674 232 219 190
-1.27525627025108 -63.6281901770186 675 180 165 135
0.569674200105759 -60.3907564780569 680 162 146 112
0.572187468635637 -58.7946283987734 683 158 142 109
-1.2771455387996 -69.2528603050626 676 249 238 217
-1.27147773315404 -67.1102374861705 673 251 238 215
0.564647663046002 -65.3719408563197 674 232 219 190
0.565485419222628 -63.6281901770186 675 176 161 131
0.567998687752507 -62.0620593697117 678 174 156 122
2.44187491771406 -53.3627584111419 685 163 148 118
2.43831013681229 -55.1501414860454 684 172 160 131
2.43118057500874 -58.7085454875014 682 159 143 110
2.43118057500874 -56.8487146249517 682 170 158 129
2.42761579410697 -60.479566414054 681 162 144 111
2.4240510132052 -62.2451332911563 680 177 160 130
4.30359504881231 -53.2848565740454 684 166 151 121
4.29730324318539 -55.0695126242237 683 172 160 131
4.31617866006615 -51.5699212867882 686 158 140 107
4.32247046569307 -49.7716301129841 687 160 139 101
4.28471963193156 -58.6224625762294 681 158 142 109
4.27842782630464 -56.682002851858 680 169 156 127
4.3350540769469 -48.0376056526509 689 161 140 102
4.34134588257382 -46.2256793552211 690 160 139 101
4.35392949382766 -44.4725657218119 692 159 138 100
4.34763768820074 -42.523924923265 691 157 135 99
4.35392949382766 -40.6983635022095 692 159 138 100
4.35392949382766 -38.8112623924083 692 162 141 103
4.37280491070842 -37.0842371263178 695 159 138 98
4.37909671633533 -35.2395865321863 696 159 138 98
4.39797213321609 -33.4852910188443 699 159 138 100
4.39797213321609 -31.5791007359671 699 158 137 99
4.41055574446993 -29.7578114844292 701 156 136 102
4.40426393884301 -27.8064436611572 700 156 140 107
4.41055574446993 -25.9345228197742 701 167 155 126
4.41684755009685 -24.0571479289409 702 168 159 129
-34.1118230353363 -93.6367284408339 707 187 188 184
-36.1927566568182 -94.0340554356324 710 169 169 167
-30.2986047134052 -93.7691707724334 708 231 230 224
-28.3278035933011 -91.7087219601555 707 253 248 241
-26.3624565226473 -91.5790066532812 706 254 251 244
-28.4079388227023 -93.9016131040329 709 250 249 243
-6.89818476591179 -77.6469135885691 685 254 254 246
-3.13907942609312 -73.371394169753 680 254 250 234
-1.2771455387996 -71.0963290192614 676 248 242 225
-3.13446313281945 -75.1151448490541 679 255 253 243
0.564647663046002 -69.0479701858168 674 249 239 220
0.563809906869376 -67.1102374861705 673 250 237 214
-20.4699800915877 -89.1457740687312 702 254 250 240
-14.621973812307 -86.6100964245583 697 248 244 230
-18.5291762434602 -89.018785786582 701 252 248 238
-12.6482319112825 -82.3333951258095 693 254 250 239
-10.7428793845819 -82.2145879178357 692 254 252 242
-8.84298090733159 -82.095780709862 691 253 253 243
-6.91832545135971 -79.7470858917915 687 255 255 247
-5.03017282918662 -77.6469135885691 685 254 254 244
-24.4371770666941 -91.5790066532812 706 253 253 245
-22.5118976107409 -91.5790066532812 706 252 252 244
-16.6175319111327 -89.018785786582 701 252 248 238
2.40979188959811 -63.722454162466 676 176 161 132
2.40622710869634 -65.4689318664923 675 232 219 190
0.565485419222628 -70.9911569349134 675 248 244 230
-1.28470261299368 -73.371394169753 680 255 251 237
-1.28470261299368 -75.2257709828524 680 254 252 242
-3.16216089246145 -77.6469135885691 685 254 254 244
2.40622710869634 -69.1504152454397 675 249 239 222
2.39909754689279 -67.1102374861705 673 249 238 217
4.27842782630464 -60.3907564780569 680 160 144 111
4.27213602067772 -62.153596330434 679 181 164 134
6.13280463940408 -60.3907564780569 680 161 144 114
6.14182346975614 -58.6224625762294 681 156 139 109
6.14182346975614 -56.7653587384049 681 159 146 117
6.16887996081234 -55.1501414860454 684 171 159 130
6.1778987911644 -53.3627584111419 685 166 154 123
6.18691762151647 -51.5699212867882 686 154 138 105
6.18691762151647 -49.6991823253378 686 160 139 101
6.20495528222059 -47.9678848897298 688 161 140 102
6.21397411257266 -46.1586856170251 689 160 139 101
6.23201177327679 -44.408299008341 691 159 138 100
6.22299294292472 -42.4623852345193 690 161 139 103
6.24103060362885 -40.6983635022095 692 160 139 101
6.24103060362885 -38.8112623924083 692 161 140 102
6.26808709468505 -37.0842371263178 695 158 137 97
6.26808709468505 -35.1889549423412 695 159 138 98
6.28612475538918 -33.3894818886044 697 160 139 101
6.28612475538918 -31.4887456551775 697 156 135 97
6.30416241609331 -29.6729104530899 699 154 134 100
6.30416241609331 -27.7667201702127 699 154 138 104
6.3312189071495 -25.9715192859936 702 161 149 118
2.51673531665128 -20.3436667830113 706 156 140 106
8.03416487281236 -55.1501414860454 684 169 157 128
8.05765658296678 -51.5699212867882 686 158 142 109
8.04591072788957 -53.3627584111419 685 167 156 125
8.05765658296678 -49.6991823253378 686 160 138 102
8.09289414819841 -48.0376056526509 689 162 140 104
8.09289414819841 -46.1586856170251 689 160 138 102
8.10464000327562 -44.3440322948702 690 159 137 101
8.10464000327562 -42.4623852345193 690 159 137 101
7.98718145250352 -58.5363796649575 680 155 139 106
6.12378580905201 -62.153596330434 679 176 161 131
7.99892730758073 -56.7653587384049 681 158 146 115
8.12813171343005 -40.6983635022095 692 160 139 101
8.15162342358447 -38.923433670999 694 159 138 98
8.17511513373889 -37.137595740888 696 161 140 98
8.1868609888161 -35.2902181220314 697 159 138 98
8.1868609888161 -33.3894818886044 697 157 136 98
8.19860684389331 -31.5339231955723 698 156 135 97
8.22209855404774 -29.7153609687596 700 153 131 97
2.52386487845482 -18.4705640616956 708 154 136 100
4.4357229669776 -22.2374038221955 705 169 158 125
2.52386487845482 -16.5398305562921 708 158 146 113
0.595644641581168 -14.671000004494 711 170 159 126
0.594806885404542 -12.7141781317717 710 163 152 117
6.34023773750157 -24.0914173704351 703 162 155 125
4.4357229669776 -20.3148513909674 705 157 142 105
4.45459838385836 -16.5398305562921 708 158 146 113
2.53455922116014 -14.671000004494 711 170 159 126
2.53099444025837 -12.7141781317717 710 163 152 117
0.595644641581168 -10.7931708453361 711 148 135 98
4.44201477260452 -18.418387327058 706 154 136 100
0.597320153934421 -8.87916275314318 713 159 143 109
2.53455922116014 -10.7931708453361 711 150 135 98
-5.29453227714387 -7.01260387585713 721 165 151 117
-7.27078744669827 -7.02233009482503 722 165 149 115
8.23384440912495 -27.8461671521017 701 151 135 101
8.24559026420216 -25.9715192859936 702 161 149 116
8.24559026420216 -24.0571479289409 702 163 156 126
6.3582753982057 -20.3148513909674 705 157 141 107
6.36729422855776 -22.2689462389645 706 167 158 127
8.28082782943379 -22.2374038221955 705 165 156 125
6.37631305890983 -18.4444756943768 707 153 135 101
4.46718199511219 -14.6503656866255 710 169 158 127
4.46718199511219 -12.7141781317717 710 164 150 116
6.38533188926189 -16.5398305562921 708 159 147 114
2.53812400206191 -8.86670950945013 712 153 138 101
4.47347380073911 -10.7931708453361 711 149 134 97
9.89944978481238 -53.2848565740454 684 170 158 129
9.9283955444171 -51.5699212867882 686 157 142 112
9.94286842421945 -49.7716301129841 687 158 136 100
9.98628706362653 -48.107326415572 690 159 137 101
9.98628706362653 -46.2256793552211 690 162 140 104
9.87050402520767 -54.988883762402 682 170 158 129
10.0152328232312 -44.4725657218119 692 161 139 103
10.0152328232312 -42.5854646120107 692 160 138 102
10.044178582836 -40.8159888302505 694 159 138 100
10.0731243424407 -39.0356049495898 696 158 137 99
10.087597222243 -37.1909543554583 697 159 138 98
10.087597222243 -35.2902181220314 697 159 138 98
10.1020701020454 -33.4373864537244 698 158 137 99
10.1165429818477 -31.5791007359671 699 156 134 98
10.1454887414525 -29.7578114844292 701 156 134 100
10.1454887414525 -27.8461671521017 701 153 135 102
10.1599616212548 -25.9715192859936 702 156 144 113
10.1599616212548 -24.0571479289409 702 165 156 126
6.40336954996602 -14.6503656866255 710 169 158 127
4.47976560636603 -8.86670950945013 712 150 135 98
-13.3052829196608 -5.10241260296874 729 147 138 117
10.1889073808595 -22.2058614054264 704 166 155 124
8.292573684511 -20.3436667830113 706 154 138 104
8.30431953958821 -18.4444756943768 707 151 133 99
8.31606539466542 -16.5398305562921 708 158 143 113
6.41238838031809 -12.732085424915 711 166 152 118
6.41238838031809 -10.7931708453361 711 150 135 98
8.33955710481985 -14.6503656866255 710 170 159 128
-3.33296374358711 -7.02233009482503 722 167 153 120
6.42140721067015 -8.86670950945013 712 152 137 100
4.24696879817004 -63.6281901770186 675 173 160 131
4.24067699254313 -65.3719408563197 674 236 224 197
11.9195338375599 -44.5368324352827 693 158 138 104
11.9023339330324 -42.5854646120107 692 159 139 105
11.9539336466149 -40.8748014942711 695 159 137 101
11.9711335511424 -39.0356049495898 696 159 138 100
12.0055333601975 -37.2443129700285 698 157 136 98
12.022733264725 -35.3914813017215 699 156 135 97
12.022733264725 -33.4852910188443 699 155 134 96
11.8679341239774 -48.107326415572 690 160 138 104
11.8851340285049 -46.2926730934171 691 158 136 102
11.7991345058674 -51.5699212867882 686 160 145 116
11.8335343149224 -49.8440779006304 688 157 137 103
12.0743329783075 -27.8858906430462 702 152 134 101
12.0743329783075 -31.7146333571515 702 156 135 97
12.0743329783075 -24.0571479289409 702 167 158 128
12.0743329783075 -25.9715192859936 702 155 143 112
2.40622710869634 -70.9911569349134 675 250 246 232
0.568836443929133 -73.2634950606798 679 255 251 240
4.24696879817004 -69.1504152454397 675 252 244 227
4.23438518691621 -67.1102374861705 673 249 239 222
