ply
format ascii 1.0
element vertex 952
property float x
property float y
property float z
property uchar red
property uchar green
property uchar blue
element face 0
property list uchar int vertex_indices
end_header
11.9362306223372 36.6446779076543 599 164 161 140
11.9163036930846 34.952740698131 598 164 162 142
11.8963767638319 33.2662575380579 597 165 163 143
11.9561575515899 38.342069166628 600 162 160 136
-2.70053156509482 -4.09452863201195 585 200 196 171
-1.10900063798131 -0.90699999317578 587 172 164 137
2.11035029384923 -15.4443134527172 592 245 233 214
-2.69129897854748 -8.8500964878072 583 241 233 216
-1.10711136943279 -10.4936737819975 586 252 246 230
-1.10522210088427 -8.88045702464359 585 241 233 216
0.490925119502904 -10.4936737819975 586 254 250 234
0.49176287567953 -12.1123445888017 587 255 252 238
2.10322073204569 -13.7831921302434 590 249 243 226
-2.68668268527382 -7.2477878293539 582 253 247 230
-1.10144356378723 -7.26024107304695 583 249 241 224
2.09252638934037 2.2945270341459 587 170 158 129
3.79395879303191 -22.3088691302765 603 255 251 240
5.45639236299921 -24.0327120214287 605 242 234 217
5.43835470229508 -22.3088691302765 603 250 244 228
5.41129821123889 -18.9254500614429 600 253 249 233
5.41129821123889 -20.5616648965307 600 254 250 236
7.1179881767899 -24.0724355123732 606 243 235 218
7.08275061155826 -22.3088691302765 603 245 237 220
7.23544672756201 -31.1890593445786 616 249 241 224
10.6811407115797 -34.8291820024358 621 247 241 224
8.95871259765916 -34.717010723845 619 243 235 218
8.9442397178568 -32.9756238044092 618 246 234 215
8.91529395825209 -31.1890593445786 616 245 235 218
10.6295409979972 -32.9756238044092 618 246 234 215
12.3347692073902 -34.717010723845 619 253 249 233
10.7155405206347 -36.6402896847926 623 255 251 235
8.88634819864737 -29.4134029836487 614 251 244 231
10.5607413798872 -31.0877961648885 614 245 233 214
7.16497159709874 -27.5582996408297 610 253 247 231
12.4742577121587 -38.5238451547958 626 254 248 231
12.5938192876746 -42.3400425398547 632 244 234 215
12.4144769244008 -36.6402896847926 623 255 252 236
14.0907593741891 -36.5814770207721 622 254 251 237
14.2946449599893 -42.2730488016587 631 239 229 212
12.6536000754326 -44.2726844549105 635 251 243 226
9.23369731390395 -46.2216885183171 638 252 242 223
10.9563391840197 -46.1492407306709 637 255 249 232
10.9563391840197 -44.4121259807527 637 244 234 215
7.14147988694432 -25.8099135271512 608 245 237 220
8.82845667943794 -27.5582996408297 610 255 249 233
8.81398379963559 -25.8523640428208 609 251 245 229
10.4575419527221 -27.4679445600401 608 253 247 231
10.5091416663047 -29.2696892882888 611 245 237 220
5.80812674672974 -48.4125791671889 644 243 233 214
5.83518323778594 -50.4024886014727 647 254 246 229
7.56433066972392 -48.4125791671889 644 249 243 226
7.57607652480113 -50.2466849272796 645 255 249 232
7.04751304632663 -20.5616648965307 600 250 246 232
8.75609228042616 -24.0327120214287 605 246 238 221
8.7416194006238 -22.3458655964959 604 241 233 216
7.04751304632663 -18.9254500614429 600 251 247 233
3.74362434801656 -17.1451582661356 595 244 232 213
5.3842417201827 -17.2027890502234 597 242 232 215
10.4403420481946 -25.7674630114815 607 255 250 234
13.8868737883889 -31.0371645750434 613 241 233 216
12.2152076318743 -31.0371645750434 613 246 234 215
12.175353773369 -29.2696892882888 611 243 233 216
12.2949153488849 -32.922265189839 617 245 235 218
12.115572985611 -25.8099135271512 608 255 251 237
10.4059422391396 -24.0327120214287 605 248 242 226
5.3571852291265 -15.4964901873548 594 243 231 212
7.012275481095 -17.2027890502234 597 246 238 221
3.71845712550888 -15.4182250853985 591 243 231 212
3.70587351425505 -13.7598307876498 589 245 237 220
2.09609117024214 -12.1329789066701 588 255 251 235
2.0889616084386 -10.4936737819975 586 254 251 235
3.69958170862813 -12.1329789066701 588 253 249 233
5.32110990771824 -13.7831921302434 590 242 232 215
6.97703791586336 -15.4964901873548 594 240 230 211
5.29405341666205 5.49605406146758 587 172 160 131
0.489249607149652 -0.902364558798391 584 175 167 140
-1.10333283233575 -2.49494699828379 584 191 185 158
5.29405341666205 8.69758108878925 587 168 161 131
6.91830864047731 11.9396502221283 589 166 161 131
6.9065627854001 10.3158886307337 588 164 159 129
8.51005332378608 13.5228697075056 588 161 157 133
8.52452620358844 15.1520853483506 589 157 153 129
0.490087363326278 -8.88045702464359 585 240 234 217
-2.68668268527382 -5.66065943931879 582 249 246 226
2.08183204663505 -8.86527675622539 584 251 245 228
-1.09766502669019 -5.65093322035089 581 254 249 229
0.487574094796399 -7.2477878293539 582 243 233 216
-1.09766502669019 -4.06653185504093 581 241 239 215
0.485898582443147 -5.64120700138299 580 255 249 232
8.68372788141437 -18.9254500614429 600 252 248 232
8.69820076121673 -20.5959343380249 601 246 240 224
8.62583636220494 -17.1739736581795 596 251 245 228
5.30307224701411 -12.1329789066701 588 250 242 225
6.91830864047731 -13.7598307876498 589 243 231 212
10.3027428119746 -18.8939076446739 599 250 244 228
10.3199427165021 -20.5616648965307 600 242 234 217
3.66812268049353 -8.8500964878072 583 255 251 235
3.68070629174737 -10.4757664888541 585 255 252 236
5.75401376461735 91.2258116785034 638 168 160 135
7.48210968418344 91.0828245128631 637 172 165 142
5.78107025567355 93.402796024243 641 168 160 135
10.7671402342172 80.9743783011122 626 170 170 152
10.8187399477997 83.0777329792729 629 169 169 151
9.14686003508981 85.1974498057844 632 176 174 156
9.16133291489216 87.0584625482668 633 173 171 151
9.19027867449688 90.7968501815825 635 174 172 152
9.17580579469452 88.9249293401995 634 176 174 154
7.49385553926065 92.9656534531467 638 171 164 141
7.51734724941507 95.0023776579711 640 175 168 145
10.7499403296897 77.4362453526649 625 173 173 155
12.4144769244008 75.4895129637702 623 173 171 153
12.3945499951481 73.6721326168901 622 173 173 155
12.3546961366428 71.7444894010715 620 171 171 153
14.0907593741891 73.6721326168901 622 172 170 150
14.1360672821447 75.6106839316093 624 173 171 153
12.4144769244008 77.1884493675363 623 172 170 152
12.4144769244008 78.8873857713024 623 171 169 151
14.1134133281669 77.1884493675363 623 172 170 150
12.4543307829061 80.8450262590976 625 172 170 152
10.8015400432722 84.658225439925 628 169 169 151
10.8359398523272 86.6458631996968 630 172 172 154
14.0001435582779 66.4571517238728 618 173 172 150
12.2749884196322 62.8823855740658 616 173 172 150
14.0001435582779 64.7718504437324 618 172 171 149
12.3148422781375 64.7718504437324 618 174 172 152
14.0001435582779 69.8277542841535 618 168 166 146
14.0681054202113 71.8602063194604 621 171 169 149
14.0227975122557 68.2527158729517 619 171 170 148
15.7615877745271 71.8602063194604 621 161 157 133
10.8531397568547 88.5041489174541 631 173 173 155
10.8875395659097 90.5108758503019 633 172 172 154
12.4742577121587 84.3886132569953 626 169 167 149
12.5340384999167 88.2236286356238 629 170 170 152
9.19027867449688 92.5285108820504 635 172 170 150
9.21922443410159 94.5570540126994 637 171 169 149
5.79008908602561 97.0500099616961 642 166 158 141
4.04563101810865 98.9546550997809 643 161 147 137
0.541190490100471 104.701314810737 646 165 159 156
5.8712585591942 -52.4893890459292 651 255 251 234
5.88027738954626 -54.3480380285462 652 251 245 228
5.93439037165865 -56.6425556169735 658 233 227 211
7.61131409003276 -52.247502460464 648 254 248 231
7.65829751034161 -54.3480380285462 652 242 234 217
14.0227975122557 -34.717010723845 619 253 250 234
14.1360672821447 -38.4007657773044 624 249 241 224
15.7869687532301 -36.5814770207721 622 253 249 233
13.9548356503223 -32.8689065752687 616 249 241 224
14.2266830980559 -40.359496059679 628 242 230 211
14.3626068219227 -44.2029636919893 634 255 247 230
12.6735270046852 -46.0767929430246 636 255 250 233
15.9392546254477 -40.359496059679 628 243 231 212
15.9900165828536 -42.2060550634627 630 241 231 214
9.30606171291574 -50.0908812530865 643 254 248 231
9.30606171291574 -48.3374043548175 643 255 251 234
11.0423387066573 -48.2622295424461 642 255 251 234
12.7731616509485 -48.1870547300746 641 254 248 231
14.4079147298782 -46.0767929430246 636 255 251 234
15.8377307106359 -38.4007657773044 624 243 233 216
19.4569027646911 -40.5522962000914 631 243 231 212
17.7361501631238 -42.2730488016587 631 248 238 221
17.6799341562676 -40.4237627731498 629 242 230 211
16.1169214763683 -44.2726844549105 635 255 249 232
9.39289899172988 -52.3281313222858 649 244 236 219
9.49420915034638 -54.6814615747336 656 236 228 211
-1.22802455653808 107.122186236947 650 163 159 145
0.542866002453723 106.792579510064 648 147 141 135
-1.22802455653808 108.894752308292 650 152 149 135
12.1952807026216 59.1361801314345 612 172 169 148
13.8868737883889 57.5611417202326 613 162 154 127
15.5585399449036 55.889475563718 613 160 151 121
17.2583141048463 52.6318628971009 614 148 140 113
15.5839209236065 57.6550424408203 614 157 148 118
13.8868737883889 59.2328078767473 613 165 159 134
17.2864221082744 54.3947027494781 615 146 139 109
12.2550614903796 61.1031835733378 615 173 172 150
13.9321816963445 61.1031835733378 615 163 159 134
13.9548356503223 62.8823855740658 616 168 167 143
15.6346828810124 62.8823855740658 616 160 154 129
15.6854448384183 64.7718504437324 618 162 158 134
15.7108258171212 66.5646875680862 619 161 159 135
17.4269621254148 64.9814680827089 620 144 138 113
15.7108258171212 68.2527158729517 619 156 154 130
15.7108258171212 69.9407441778172 619 163 159 135
15.812349731933 73.7905765600041 623 160 155 134
15.8631116893389 75.7318548994485 625 168 165 145
17.5393941391272 72.2073570746268 624 146 139 116
5.78107025567355 98.6468645706992 641 170 159 144
4.03304740685481 100.394887419518 641 137 117 111
4.04563101810865 102.461608896319 643 158 152 150
2.29571890074139 104.377162133304 644 162 155 156
4.03933921248173 104.053009455872 642 161 154 155
4.05192282373557 106.133366056298 644 163 157 154
2.30284846254494 106.462972783181 646 164 157 154
5.79008908602561 102.302259582328 642 151 140 137
0.543703758630349 108.727221920126 649 158 150 141
-1.23180309363512 111.007833205421 652 135 133 122
0.544541514806975 110.667318379637 650 155 151 137
7.50560139433786 96.596505242249 639 173 168 148
5.77205142532148 100.238265130252 640 157 145 136
2.30641324344671 108.392161143792 647 140 131 126
2.31354280525025 110.497060966746 649 160 154 138
4.05192282373557 107.889569979293 644 156 150 144
0.543703758630349 112.266900013365 649 144 140 129
9.21922443410159 96.2941687626175 637 170 168 148
7.49385553926065 99.9250205517198 638 172 161 148
7.49385553926065 98.1851787770765 638 173 165 148
7.52909310449228 102.142910268337 641 134 123 118
5.78107025567355 103.890933117155 641 157 150 148
5.78107025567355 105.638955965974 641 118 112 110
15.380873093983 45.3357977920487 606 150 144 117
15.3301111365771 43.5390517630371 604 154 146 119
17.0615580808497 45.4106093395604 607 145 139 112
17.0334500774216 43.6832208086101 606 145 139 112
17.0896660842778 47.1434519199609 608 145 139 112
15.3047301578742 41.8225713309875 603 153 145 118
18.7785321453199 43.8994743769696 609 134 128 103
18.8710372297796 49.1225453406975 612 133 127 102
18.8710372297796 47.453606208908 612 136 130 105
17.2864221082744 56.071822955443 615 150 141 111
18.9635423142393 51.0404623375482 615 134 128 103
15.5585399449036 59.2328078767473 613 155 147 120
17.3145301117025 57.8428438819956 616 149 140 110
13.5923723866776 38.342069166628 600 160 158 134
13.5923723866776 36.7058543315402 600 159 156 135
15.2793491791712 38.4698760638501 602 156 150 125
15.2539682004683 36.7670307554261 601 157 153 128
15.3047301578742 40.1781754217243 603 157 149 122
16.9491260671373 40.1781754217243 603 145 139 112
16.9491260671373 38.5337795124611 603 147 141 114
16.9772340705654 41.8919288290488 604 144 138 111
13.5244105247442 33.2662575380579 597 163 161 137
13.547064478722 34.952740698131 598 162 160 136
10.1823434802821 23.3012538421605 592 165 165 147
10.1823434802821 24.915652479447 592 163 163 145
11.7967421175687 24.915652479447 592 167 166 144
11.8166690468213 26.5748653922686 593 163 163 143
15.5839209236065 61.0038288032999 614 155 147 120
17.2864221082744 59.4260633673729 615 152 140 111
18.8402022016264 45.7098555296069 611 133 127 102
20.6071004673259 49.2830765346213 614 137 131 106
18.7476971171667 42.1693588212942 608 131 125 100
18.9943773423926 52.8033021899254 616 133 127 102
18.9943773423926 56.1629966513055 616 136 128 101
20.6406625202043 52.7175825435131 615 140 136 112
20.6742245730826 51.1234549592353 616 140 133 110
19.0252123705458 54.5715960917528 617 135 129 104
20.5064143086907 44.0436434225425 611 131 127 102
20.5399763615691 45.7846670771185 612 134 128 103
20.6071004673259 47.6086833533816 614 132 126 101
22.2452045709621 45.8594786246301 613 147 140 117
22.3540718037727 49.4436077285452 616 151 143 118
22.3177827261692 47.6862219256183 615 152 144 119
19.0252123705458 57.9367446025833 617 135 127 100
20.707786625961 56.254170347168 617 141 135 110
17.3426381151306 61.3018931134137 617 146 136 109
17.3707461185587 63.086549163592 618 147 139 112
15.1524442856565 33.2662575380579 597 148 144 119
15.2032062430624 35.0111900972917 599 156 152 127
16.8648020568531 35.0696394964525 600 146 140 113
16.9210180637093 36.828207179312 602 145 139 112
18.5935219764005 36.8893836031979 603 135 127 100
18.6243570045538 38.5976829610722 604 134 126 99
18.6860270608602 40.3780668417329 606 135 129 102
16.836694053425 33.3777022869291 599 143 137 110
13.4791026167886 31.5322330777247 595 162 161 137
15.1270633069536 31.5852284274352 596 151 147 122
15.1270633069536 29.959921691248 596 148 146 121
13.4564486628108 28.2395323545405 594 164 163 141
15.1270633069536 28.3346149550609 596 146 144 120
13.4791026167886 29.9096533662627 595 162 161 137
16.7804780465688 30.0101900162333 597 140 134 107
16.7804780465688 31.6382237771456 597 138 132 105
14.0907593741891 78.760760754013 622 171 169 149
15.8884926680418 77.5601433452291 626 165 162 142
17.5675021425553 74.0274644462321 625 144 137 114
17.4269621254148 66.6722234122995 620 144 138 113
17.4550701288429 68.4732416108287 621 140 134 109
17.483178132271 70.2797138588082 622 142 136 111
12.4543307829061 82.549416712314 625 170 168 150
14.1360672821447 80.7156742170831 624 170 168 148
15.8631116893389 79.1406358058812 625 162 159 139
12.4742577121587 86.0957307349368 626 169 167 149
14.1813751901003 84.3886132569953 626 167 164 144
14.1360672821447 82.4173376455743 624 169 166 146
15.8884926680418 82.6814957790537 626 158 153 132
15.8884926680418 80.9743783011122 626 163 158 137
17.6237181494115 79.3938858404601 627 137 130 109
10.8703396613822 92.0913683109541 632 170 170 152
10.8875395659097 93.9632891523371 633 168 168 150
8.55347196319316 18.4268787783915 591 160 157 137
10.1651435757546 20.0385503909529 591 160 158 138
10.1479436712271 18.3956996264822 590 157 155 135
10.1307437666996 16.7583029114617 589 155 152 131
10.1651435757546 21.6502220035143 591 164 162 142
11.7967421175687 23.3012538421605 592 166 164 144
11.7568882590634 20.0046442143184 590 164 163 141
11.7568882590634 21.6135888021547 590 165 164 142
2.08183204663505 0.690217880687009 584 170 158 129
3.67441448612045 2.28280032017241 584 168 156 127
5.26699692560585 3.87538275965781 584 167 155 126
6.87132522016847 7.07263761746188 585 162 153 123
8.48110756418137 11.8788370631022 586 160 156 131
6.87132522016847 8.66794708167243 585 163 154 124
8.46663468437901 10.263256545883 585 160 154 127
6.84783351001404 5.45860224503509 583 163 154 124
10.0791440531171 13.4768735520379 586 159 157 133
10.0963439576446 15.1006351434326 587 158 155 134
11.7170344005581 16.7298507842776 588 162 161 139
11.7170344005581 18.3333413226636 588 162 161 139
8.4376889247743 8.6383130745556 583 161 152 122
13.2978709849662 18.3021621707543 587 163 161 137
13.2752170309884 16.6729465299093 586 163 161 137
11.6572536128001 15.0491849385146 585 160 159 135
13.3431788929218 19.970738037684 589 162 160 136
13.3658328468996 21.6135888021547 590 163 162 138
13.433794708833 26.5748653922686 593 167 166 142
15.1016823282506 26.6644939433387 595 148 146 121
14.9747774347359 21.6135888021547 590 147 144 116
13.4111407548552 23.3012538421605 592 165 164 140
15.0255393921418 23.3012538421605 592 150 148 123
13.4111407548552 24.915652479447 592 167 166 144
15.0509203708447 24.9577397302569 593 151 149 125
16.6680460328565 24.9577397302569 593 142 136 109
16.7523700431407 26.7093082188737 596 144 138 111
16.7523700431407 28.3346149550609 596 141 135 108
2.07113770392974 -7.23533458566085 581 242 232 215
0.485898582443147 -2.47785832021336 580 242 235 212
8.5389990833908 -13.7831921302434 590 243 232 211
8.58241772279787 -15.470401820036 593 244 234 217
2.06400814212619 -5.63148078241508 579 244 234 217
5.27601575595792 -10.4757664888541 585 255 252 236
5.26699692560585 -8.86527675622539 584 255 252 236
6.85957936509125 -10.4578591957108 584 251 247 231
6.89481693032289 -12.1123445888017 587 243 233 214
3.64924726361278 -7.2228813419678 580 244 236 219
0.484223070089895 -4.04553427231266 578 254 249 229
5.23994043454966 -7.23533458566085 581 255 249 232
5.23994043454966 2.27107360619892 581 168 159 129
10.3715424300846 -22.3088691302765 603 242 234 218
12.0358652686005 -23.9929885304842 604 255 248 235
11.9960114100952 -22.2718726640572 602 247 239 223
11.9163036930846 -20.4931260135422 598 239 231 214
11.9163036930846 -18.8623652279048 598 246 238 222
13.6829882025888 -23.9929885304842 604 254 250 236
12.115572985611 -27.4679445600401 608 251 243 226
13.6376802946332 -22.2718726640572 602 251 244 231
17.4269621254148 -34.7730963631404 620 255 251 235
15.7108258171212 -34.717010723845 619 254 251 235
15.6600638597154 -32.922265189839 617 253 249 233
15.5839209236065 -31.0877961648885 614 244 238 221
17.3707461185587 -32.9756238044092 618 254 251 235
19.1177174550055 -34.7730963631404 620 248 240 223
17.5393941391272 -36.6991023488132 624 252 244 227
13.8415658804333 -29.2696892882888 611 244 234 217
15.5331589662006 -29.3175938534088 612 244 234 217
13.7962579724778 -27.5131221004349 609 244 236 219
17.2583141048463 -31.0877961648885 614 253 249 233
19.3027276239249 -38.5238451547958 626 243 232 211
17.5675021425553 -38.4623054660501 625 242 230 211
19.4877377928443 -42.3400425398547 632 255 246 229
17.8485821768362 -44.2726844549105 635 255 248 231
19.2410575676184 -36.6991023488132 624 243 233 216
17.9329061871204 -46.2216885183171 638 239 231 214
16.1676834337742 -46.1492407306709 637 255 247 230
11.0595386111848 -50.0908812530865 643 249 243 226
14.5211844997672 -48.1870547300746 641 246 238 221
13.7736040185 -25.8099135271512 608 252 246 230
15.4570160300918 -27.5131221004349 609 245 235 218
15.4062540726859 -25.7674630114815 607 245 237 220
17.1177740877059 -27.5131221004349 609 244 234 217
17.2020980979901 -29.3175938534088 612 248 240 223
12.8329424387064 -50.1687830901831 644 241 233 216
10.2339431938646 -17.1451582661356 595 255 249 232
15.3047301578742 -23.9532650395397 603 252 245 232
13.547064478722 -18.8623652279048 598 244 236 219
11.8565229053266 -17.1451582661356 595 254 250 234
17.0334500774216 -25.7250124958118 606 245 235 218
18.8402022016264 -29.2696892882888 611 254 248 231
20.5399763615691 -29.3175938534088 612 255 251 237
20.5735384144475 -31.0371645750434 613 255 251 237
18.9018722579329 -31.0371645750434 613 253 250 236
19.0252123705458 -32.922265189839 617 252 248 232
18.6860270608602 -25.7250124958118 606 243 233 216
18.7476971171667 -27.4679445600401 608 247 239 222
16.9491260671373 -23.9532650395397 603 247 241 225
15.2539682004683 -22.2348761978378 601 254 247 234
11.7967421175687 -15.4443134527172 592 255 251 235
10.1823434802821 -15.4443134527172 592 251 245 229
13.4791026167886 -17.1451582661356 595 250 246 230
10.1135438621721 -13.7364694450561 588 246 234 215
8.49558044398373 -12.1123445888017 587 247 233 214
6.83608765493683 -8.83491621938901 582 255 253 239
8.46663468437901 -10.4757664888541 585 247 239 223
10.0791440531171 -12.0917102709332 586 247 233 214
11.7170344005581 -13.7364694450561 588 249 239 222
13.433794708833 -15.470401820036 593 255 251 237
8.40874316516958 7.02427770212881 581 161 149 120
6.82434179985962 3.85547497150888 581 165 156 126
3.64295545798586 0.684308481023593 579 176 167 137
2.06757292302796 -0.896183979628539 580 192 184 159
10.0275443395346 11.8180239040761 583 160 156 131
11.6373266835475 13.4308773965702 584 160 158 134
13.2299091230329 15.0234598360556 584 164 160 135
13.2072551690551 13.4078793188364 583 166 162 137
14.8732535199241 15.0749100409736 586 152 146 119
14.8986344986271 16.7013986570935 587 149 143 118
6.81259594478241 -7.2228813419678 580 255 253 239
5.22190277384553 -5.63148078241508 579 243 235 218
3.63666365235894 -5.62175456344718 578 241 233 216
8.4376889247743 -8.8500964878072 583 254 251 237
2.05687858032265 -2.46504181166053 577 254 247 226
2.05687858032265 -4.0385350780699 577 251 245 228
3.61778823547819 -4.02453668958439 575 241 233 216
3.6240800411051 -0.890003400458687 576 249 242 219
6.78910423462799 -5.62175456344718 578 253 249 233
13.5244105247442 -20.458856572048 597 243 235 218
15.1778252643594 -18.8623652279048 598 242 234 217
15.0763013495477 -15.4964901873548 594 255 251 235
15.1016823282506 -17.1451582661356 595 247 241 224
11.6771805420528 -12.0917102709332 586 248 234 217
13.320524938944 -13.7364694450561 588 254 248 232
15.1524442856565 -20.458856572048 597 248 242 226
16.8085860499969 -20.4931260135422 598 253 247 231
16.7804780465688 -18.8308228111357 597 243 235 218
16.8929100602812 -22.2348761978378 601 254 248 232
8.39427028536723 -7.2228813419678 580 253 251 240
9.99314453047954 -8.81973595097081 581 246 213 202
10.0275443395346 -10.4399519025675 583 243 228 213
10.8875395659097 95.6894958033546 633 167 167 149
14.2040291440781 86.2332638511268 627 166 164 144
15.9138736467448 84.5234193484601 627 159 154 133
17.6237181494115 81.1037303431268 627 136 129 108
15.9392546254477 86.3707969673168 628 153 148 128
14.2493370520337 88.2236286356238 629 168 166 146
17.6799341562676 83.0777329792729 629 140 133 112
12.573892358422 90.2249015190213 631 170 170 152
14.2946449599893 90.2249015190213 631 168 166 146
12.573892358422 91.9456541205886 631 168 168 150
12.5938192876746 95.5383275635389 632 166 166 148
12.573892358422 93.6664067221559 631 169 169 151
14.2946449599893 91.9456541205886 631 167 165 145
10.9391392794922 97.8773882479948 636 169 167 149
9.21922443410159 98.0312835125357 637 169 167 149
9.19027867449688 99.4551536839218 635 172 168 152
19.2718925957717 72.3230739930157 625 132 124 99
19.2718925957717 70.6186835397993 625 136 128 103
19.3335626520782 74.26435233246 627 131 122 99
17.6518261528396 77.8079393303576 628 140 133 110
17.6518261528396 76.0953678029658 628 143 136 115
15.9646356041507 88.2236286356238 629 150 145 125
16.0153975615565 90.2249015190213 631 155 150 130
17.7361501631238 86.7833963158868 631 135 128 107
19.1485524831587 63.3927945478813 621 142 133 103
19.1485524831587 65.0862769021971 621 135 127 100
19.0868824268523 61.5006026534896 619 136 128 101
19.2102225394652 68.6937673487058 623 135 129 104
19.2102225394652 66.9948309449397 623 137 129 102
14.2946449599893 93.6664067221559 631 167 165 145
16.0153975615565 91.9456541205886 631 149 146 125
17.7361501631238 88.5041489174541 631 136 129 106
16.0407785402595 93.8148479372465 632 150 147 126
14.2946449599893 95.3871593237232 631 167 165 145
17.7642581665519 90.3678886846616 632 141 134 113
17.7080421596957 84.9278376228547 630 136 129 108
12.6336731461799 97.5695977189131 634 167 165 147
9.21922443410159 101.505513012372 637 165 157 148
10.8875395659097 99.1419091053898 633 169 167 149
14.3626068219227 97.5695977189131 634 165 163 143
7.52909310449228 103.890933117155 641 160 153 150
4.07079824061632 110.156546140962 647 144 132 122
11.1971378474048 -52.4893890459292 651 236 228 211
20.8084727845962 -34.7730963631404 620 243 233 216
20.9762830489881 -38.4623054660501 625 244 233 212
20.9427209961097 -36.6991023488132 624 245 231 211
20.707786625961 -32.922265189839 617 247 243 227
19.6110779054573 -44.3424052178316 636 249 239 222
21.1776553662584 -40.5522962000914 631 247 235 216
21.2447794720151 -42.4070362780507 633 255 248 231
16.3453502846948 -48.4125791671889 644 238 230 213
19.703582989917 -46.2941363059634 639 232 224 207
22.6806735022045 -38.4623054660501 625 243 232 211
22.8621188902221 -40.4880294866206 630 252 242 223
26.3399131709602 -40.5522962000914 631 254 247 227
24.5801444670642 -40.4880294866206 630 255 246 227
22.9346970454292 -42.3400425398547 632 254 246 229
24.7362088763789 -42.4740300162466 634 247 241 224
21.3790276835286 -44.4121259807527 637 240 232 215
14.7024161315896 -50.5582922756658 649 236 228 211
2.30997802434848 112.093915575749 648 152 146 130
4.07079824061632 111.920931138132 647 158 150 134
19.0252123705458 59.6193188579985 617 137 129 102
20.7413486788394 54.6600427628902 618 140 136 111
22.3903608813763 52.8890218363376 617 149 145 120
22.3903608813763 51.2064475809223 617 149 143 118
20.7413486788394 58.0306453231709 618 139 133 108
20.7413486788394 59.7159466033113 618 138 132 107
22.4629390365833 54.7484894340275 619 147 143 118
22.4266499589798 56.3453440430305 618 150 144 119
20.8420348374746 61.6993121935655 621 133 125 100
20.9091589432313 65.2958945411736 623 129 121 94
20.9091589432313 63.5969581374075 623 131 123 96
20.9427209961097 67.1023667891531 624 130 122 95
22.5718062693939 61.7986669636034 622 146 138 113
22.6443844246009 63.6990399321706 624 140 130 103
21.0434071547448 72.5545078297933 627 133 125 100
21.0098451018665 70.7316734334629 626 132 124 99
19.3952327083846 76.2165387708049 629 131 124 101
21.0769692076232 74.382796275574 628 131 123 98
19.4260677365379 78.0557353154862 630 132 125 102
21.1105312605016 76.2165387708049 629 133 124 101
20.9762830489881 68.9142930865829 625 132 124 99
22.7532516574115 70.8446633271266 627 145 135 110
22.6806735022045 68.9142930865829 625 142 132 107
9.21922443410159 103.24262776229 637 147 141 135
7.52909310449228 105.638955965974 641 161 155 153
7.51734724941507 107.219448426626 640 159 153 151
5.79008908602561 107.554509202959 642 150 144 141
5.79910791637768 109.475516489395 643 140 130 123
9.24817019370631 107.05191803846 639 163 157 154
9.24817019370631 105.309349239091 639 163 157 154
7.54083895956949 109.305259076503 642 162 151 146
5.80812674672974 111.401977825281 644 151 140 127
7.54083895956949 111.056008950047 642 141 127 118
4.07709004624324 113.861027597643 648 140 138 120
5.80812674672974 113.158181748275 644 151 143 126
9.26264307350866 108.96474425072 640 165 162 156
7.55258481464671 112.982470285933 643 152 142 125
10.9047394704372 101.027465070398 634 169 166 152
12.5938192876746 98.9852868161237 632 167 165 147
14.3626068219227 99.2985313946558 634 163 160 140
10.9047394704372 102.756398746141 634 174 170 160
10.9735390885472 105.14454587565 638 152 147 141
10.9735390885472 106.884387650293 638 162 156 153
11.0079388976023 108.96474425072 640 161 160 156
9.24817019370631 110.537055637197 639 153 138 133
20.439290202934 42.2387163193555 609 138 132 107
20.3721660971772 40.4446973150691 607 143 137 112
22.1363373381516 42.3080738174168 610 145 138 115
20.3386040442988 38.7254898582942 606 143 135 110
22.100048260548 40.5779582617414 609 149 141 116
22.027470105341 38.7893933069053 607 152 142 117
23.7998224204908 40.6445887350776 610 148 140 115
23.7998224204908 42.3080738174168 610 147 141 116
23.8778546251481 44.115727945329 612 147 140 117
22.2089154933586 44.115727945329 612 146 139 116
23.9558868298055 45.9342901721418 614 150 141 118
22.4629390365833 58.1245460437586 619 147 141 116
24.0729351367915 47.8412990700919 617 150 142 117
24.0729351367915 49.5238733255071 617 150 142 117
24.1509673414488 53.060461129162 619 147 143 119
24.1509673414488 51.3724328242965 619 148 141 118
22.4992281141868 59.9092020939369 620 148 142 117
18.5935219764005 35.2449876939348 603 134 126 101
18.5010168919408 31.797209826277 600 135 127 102
18.5626869482473 33.544869410236 602 135 127 102
20.3050419914205 35.3618864922563 605 139 131 106
20.3386040442988 37.0729128748556 606 139 131 106
20.2714799385421 33.6563141591072 604 138 128 103
22.027470105341 37.1340892987415 607 151 141 116
21.9911810277375 35.420335891417 606 150 140 115
18.5010168919408 30.1609949911893 600 136 128 101
14.949396456033 19.970738037684 589 151 145 118
16.6118300260003 21.6502220035143 591 143 137 110
16.6680460328565 23.3406140682452 593 145 139 112
18.3160067230214 23.3799742943299 594 133 127 100
18.3468417511746 25.0419142318767 595 134 128 101
25.7137662651529 46.083913267165 616 145 137 112
25.7972525192605 47.9188376423287 618 148 140 115
23.7608063181621 38.9172002041274 609 150 140 115
24.1899834437775 54.8369361051649 620 146 142 118
24.1899834437775 56.5276914347556 620 149 143 118
25.8389956463143 49.684404519431 619 146 138 113
25.6302800110452 44.259896990902 614 140 132 107
25.5467937569376 40.77784968175 612 142 132 107
25.5467937569376 42.4467888135395 612 139 131 106
27.4380836476219 44.4761505592614 617 136 126 101
27.349143344064 42.6548613077235 615 137 127 102
27.4825537994009 46.2335363621883 618 139 129 104
27.5714941029588 48.0739147868022 620 136 126 101
24.2289995461062 58.3123474849339 621 148 142 117
18.4701818637876 28.4772388558414 599 134 126 99
20.2379178856637 31.9561958754084 603 138 128 103
20.2379178856637 30.3117999661452 603 136 128 101
21.9911810277375 32.1151819245398 606 150 140 113
22.027470105341 33.823481282414 607 151 141 116
23.6827741135047 35.4787852905778 607 147 136 113
23.7217902158334 37.1952657226274 608 148 137 114
20.1707937799069 28.5723214563617 601 141 133 106
18.4085118074811 26.7541224944087 597 134 126 99
20.1036696741502 26.8437510454788 599 143 135 108
20.0701076212718 25.1681759843063 598 138 132 105
20.002983515515 23.4586947464994 596 135 129 102
19.4260677365379 79.7737608923283 630 129 122 101
22.8258298126186 72.785941666571 629 142 132 107
22.6806735022045 67.2099026333665 625 137 127 100
19.4569027646911 81.621138511185 631 130 123 100
19.4569027646911 83.3418911127523 631 129 122 101
21.2112174191367 80.0270109269071 632 134 127 104
21.1776553662584 78.1796333080504 631 129 122 99
21.2112174191367 81.7504905531995 632 136 129 106
16.0661595189624 95.6894958033546 633 146 143 123
17.79236616998 92.2370825013195 633 141 137 113
16.1169214763683 97.7234929834539 635 157 152 131
14.8986344986271 18.3021621707543 587 150 144 117
16.5556140191441 18.3645204745729 589 145 138 108
16.5837220225722 20.0046442143184 590 147 142 112
16.5556140191441 16.7583029114617 589 144 137 107
16.5556140191441 15.1520853483506 589 140 132 105
18.3160067230214 21.7601216075931 594 134 128 101
18.2543366667149 18.4580579303008 592 136 129 99
6.8008500897052 2.26325579688326 579 174 168 143
8.37979740556487 5.4211504286026 579 163 154 124
9.99314453047954 10.1930804327487 581 163 156 126
9.95874472142454 8.57904506032194 579 165 156 126
11.5775458957895 11.7774817980587 581 163 159 134
13.1619472610995 11.7774817980587 581 162 156 131
14.8224915625183 13.4308773965702 584 154 148 123
11.5376920372842 10.1579923761816 579 168 161 131
8.35085164596015 3.82893125397698 577 175 167 140
9.92434491236953 6.97591778679573 577 165 153 124
14.7717296051124 11.7977528510674 582 149 143 116
16.4431820054317 11.8585660100935 585 143 135 108
16.527506015716 13.5228697075056 588 144 136 109
11.4978381787789 8.54941105320511 577 165 156 126
13.0939853991661 8.56422805676353 578 161 152 122
14.7209676477065 8.59386206388035 580 153 142 111
14.7463486264094 10.1930804327487 581 155 146 116
13.1166393531439 10.1579923761816 579 163 156 126
18.2235016385617 16.81520716583 591 139 130 100
18.2851716948682 20.1063627442218 593 135 128 98
20.002983515515 21.8333880103122 596 135 129 102
19.9022973568799 18.48923708221 593 139 132 102
19.9358594097583 20.1402689208562 594 139 133 106
21.7371574845128 23.5767754247536 599 151 143 118
5.19484628278934 0.680762841225543 576 216 210 185
3.61149642985127 -2.4522253031077 574 252 245 225
13.2752170309884 -12.0917102709332 586 248 236 219
14.9747774347359 -13.7831921302434 590 255 251 235
14.92401547733 -12.1329789066701 588 249 241 225
5.18582745243727 -4.02453668958439 575 240 232 215
6.75386666939635 -4.02453668958439 575 245 239 222
8.36532452576251 -5.62175456344718 578 255 252 238
11.5974728250422 -10.4220446094241 582 232 164 154
11.5775458957895 -8.81973595097081 581 136 66 58
9.95874472142454 -7.21042809827475 579 253 249 239
13.1846012150773 -10.4220446094241 582 223 145 136
5.1768086220852 -0.886913110873761 574 252 245 225
11.5177651080316 -7.19797485458171 578 255 248 238
9.92434491236953 -5.61202834447928 577 254 250 239
6.75386666939635 0.67958096129286 575 243 236 213
8.32190588635544 2.24762017825194 575 227 220 197
18.5935219764005 -23.9532650395397 603 245 235 218
18.5010168919408 -22.1978797316184 600 251 245 229
18.3776767793279 -18.7992803943667 596 247 241 224
18.4701818637876 -20.5273954550365 599 255 249 233
16.6961540362845 -17.1163428740917 594 242 234 217
20.2714799385421 -23.9929885304842 604 243 233 216
20.1707937799069 -22.2348761978378 601 246 238 221
24.1899834437775 -34.7730963631404 620 245 231 211
22.4266499589798 -32.9756238044092 618 246 238 221
22.6443844246009 -36.6991023488132 624 245 231 211
22.5355171917904 -34.8291820024358 621 245 231 212
22.2814936485657 -31.0877961648885 614 254 250 234
24.1119512391202 -32.9756238044092 618 243 233 216
25.8807387733682 -34.7730963631404 620 244 230 210
24.3850639554209 -36.7579150128337 625 245 231 211
22.2089154933586 -29.3175938534088 612 254 251 237
20.439290202934 -27.5131221004349 609 253 247 230
23.9168707274768 -31.0371645750434 613 255 249 233
26.1311975356911 -38.5238451547958 626 245 238 218
24.4240800577495 -38.5238451547958 626 243 232 211
23.1524315110503 -44.4818467436738 638 234 226 209
26.0894544086373 -36.7579150128337 625 244 230 210
21.5468379479206 -46.5114796689022 642 233 225 209
18.1577702145451 -48.5629287919317 646 233 225 208
20.3721660971772 -25.7674630114815 607 243 233 216
22.0637591829445 -27.4679445600401 608 255 249 233
22.027470105341 -25.7674630114815 607 244 236 219
23.6827741135047 -27.4227670196453 607 253 249 235
23.8778546251481 -29.3175938534088 612 254 250 236
16.6680460328565 -15.470401820036 593 252 246 230
21.8460247173233 -22.2718726640572 602 244 234 217
21.9186028725304 -23.9929885304842 604 245 233 216
18.3160067230214 -17.1163428740917 594 241 233 216
20.0701076212718 -20.4931260135422 598 252 248 232
23.6047419088474 -25.6825619801422 605 248 240 223
25.5050506298838 -29.2696892882888 611 254 248 232
25.6302800110452 -31.0877961648885 614 252 242 225
27.1712627369481 -29.2696892882888 611 248 238 221
27.2602030405061 -31.0371645750434 613 242 230 211
25.7972525192605 -32.9756238044092 618 242 230 211
23.5267097041901 -23.9532650395397 603 245 233 214
25.2545918675609 -25.6825619801422 605 252 246 230
25.3380781216685 -27.4227670196453 607 253 249 235
16.5837220225722 -13.7831921302434 590 255 251 237
18.2235016385617 -13.806553472837 591 254 250 234
18.2543366667149 -15.4443134527172 592 245 237 220
19.9358594097583 -17.1163428740917 594 243 235 218
19.9694214626366 -18.7677379775976 595 253 249 233
14.8224915625183 -10.4578591957108 584 242 220 204
16.527506015716 -12.1329789066701 588 251 248 234
13.1392933071217 -8.80455568255262 580 238 197 184
14.7717296051124 -8.83491621938901 582 247 227 211
16.4712900088598 -10.4936737819975 586 247 233 216
18.130996554102 -12.1329789066701 588 251 250 236
19.8351732511231 -13.806553472837 591 248 242 226
19.8687353040015 -15.4443134527172 592 243 233 216
9.88994510331452 5.38369861217011 575 167 158 128
11.4579843202736 6.9517378291292 575 165 154 123
13.0486774912105 6.96382780796247 576 159 148 117
14.6955866690035 7.00009774446227 579 156 145 114
5.16778979173314 -2.44795313359009 573 244 236 219
6.73037495924193 -0.885367966081298 573 246 239 219
16.3869659985756 10.2281684893159 583 146 137 107
16.3588579951475 8.62349607099718 582 142 130 101
18.1001615259488 10.2983446024501 587 135 128 98
18.1926666104085 13.5688658629733 590 133 125 98
18.1618315822552 11.9396502221283 589 134 126 99
18.2235016385617 15.2035355532686 591 135 128 98
13.0939853991661 -7.19797485458171 578 251 236 221
11.4978381787789 -5.61202834447928 577 255 252 241
8.32190588635544 -4.02453668958439 575 253 250 236
6.73037495924193 -2.44795313359009 573 240 232 215
8.29296012675072 -2.44795313359009 573 244 236 219
8.27848724694837 -0.883822821288835 572 240 232 215
9.87274519878702 -4.01753749534164 574 255 252 238
8.27848724694837 0.67603532149481 572 246 241 221
13.0713314451883 -5.61202834447928 577 254 250 236
11.438057391021 -4.01753749534164 574 255 251 240
21.6282902517022 -18.7992803943667 596 255 251 235
21.6282902517022 -17.1739736581795 596 245 237 220
21.7008684069092 -20.4931260135422 598 252 248 232
21.5194230188916 -15.470401820036 593 243 233 216
16.4431820054317 -8.88045702464359 585 246 232 215
18.0693264977955 -10.4936737819975 586 251 240 225
19.7680491453664 -12.1536132245386 589 254 250 234
23.292613090218 -20.458856572048 597 248 242 226
23.2145808855607 -18.7677379775976 595 254 250 236
23.4486774995327 -22.2348761978378 601 243 233 216
14.6955866690035 -7.21042809827475 579 247 233 216
14.6448247115977 -5.61202834447928 577 249 243 227
16.3588579951475 -7.2477878293539 582 247 233 216
12.573892358422 100.549417128425 631 168 165 149
14.3626068219227 101.027465070398 634 168 165 145
19.4877377928443 85.1974498057844 632 129 122 101
19.4877377928443 86.9209294320768 632 128 119 98
21.2112174191367 83.473970179492 632 138 131 108
19.5185728209976 88.7846691992844 633 128 121 98
21.2447794720151 85.3322558972492 633 140 133 110
17.8204741734081 94.1117303674276 634 139 135 111
19.5494078491508 90.6538630159422 634 127 120 97
16.1423024550713 99.6117759731878 636 155 150 129
12.5938192876746 102.432246068709 632 168 165 151
17.8485821768362 95.9918322829861 635 139 134 113
16.1423024550713 101.346163698381 636 154 149 128
14.3399528679449 102.594322407425 633 164 160 143
12.6536000754326 104.650135785325 635 177 172 165
24.5411283647356 71.070643114454 629 151 141 116
24.5021122624069 69.2450816933985 628 149 139 114
22.8621188902221 74.6196841618019 630 144 134 109
22.6806735022045 65.5055121801501 625 137 127 100
24.4240800577495 67.3174384775799 626 147 137 110
24.6191605693929 74.7381281049159 631 150 140 113
22.8984079678256 76.4588807064832 631 143 133 108
24.6191605693929 73.0173755033486 631 151 141 116
21.2783415248935 87.1959956644568 634 140 131 108
19.6110779054573 92.6742250724158 636 130 124 99
21.3119035777719 89.0651894811146 635 137 130 107
24.2680156484348 60.1024575845625 622 146 140 115
24.3460478530922 63.6990399321706 624 144 134 107
24.3070317507635 61.8980217336414 623 146 138 113
24.4240800577495 65.6103209996383 626 143 133 106
17.9047981836923 98.0312835125357 637 140 133 110
21.3790276835286 91.0828245128631 637 136 128 103
16.1423024550713 103.080551423574 636 152 147 126
12.6934539339379 106.716857262126 637 127 122 116
14.4079147298782 104.814939148767 636 169 165 151
17.9329061871204 99.9250205517198 638 138 131 108
5.81714557708181 115.092824158337 645 131 127 110
27.6159642547378 -34.8291820024358 621 244 232 213
27.7938448618537 -36.7579150128337 625 247 235 216
27.4825537994009 -32.9756238044092 618 243 229 209
26.5486288062293 -42.6080174926386 636 238 234 218
27.8827851654116 -38.5853848435414 627 255 249 232
28.1496060760854 -40.6808296270331 633 249 243 226
29.5926296680783 -38.5853848435414 627 253 247 230
31.4023225732035 -38.7084642210328 629 248 242 225
29.9702070801112 -40.8093630539747 635 242 236 219
25.0483376950083 -44.7607297953583 642 234 228 212
5.80812674672974 116.670589594264 644 117 114 98
7.55258481464671 114.735947184202 643 148 142 125
7.56433066972392 116.670589594264 644 130 127 111
25.9642250274758 53.3176200683987 622 142 135 112
25.9642250274758 51.6214106893577 622 146 137 114
27.6159642547378 49.8449357133548 621 136 126 101
26.0059681545296 55.102276118577 623 142 135 112
27.7049045582957 53.4033397148109 623 137 129 104
26.0059681545296 56.8012125223431 623 142 135 112
26.1311975356911 60.4889685658137 626 145 137 112
26.1729406627449 62.2954408137932 627 140 132 107
26.0894544086373 58.6879503672845 625 145 138 115
26.2146837897987 64.107367111223 628 141 133 108
26.2564269168525 65.924747458103 629 143 133 108
26.2981700439064 71.1836330081177 630 137 129 104
26.2981700439064 69.4656074312755 630 142 132 107
22.9709861230327 78.427429293179 633 146 138 113
24.6971927740503 76.7012226421614 633 148 138 111
26.381656298014 73.1330924217374 632 136 128 101
23.0072752006362 80.2802609614859 634 147 139 114
24.7362088763789 78.5513272857432 634 147 137 110
23.0072752006362 82.0091946372286 634 145 138 115
26.4233994250678 74.9750159911438 633 136 128 101
26.2981700439064 67.7475818544334 630 143 133 108
28.0606657725275 69.5758703002141 631 134 126 101
14.430568683856 106.716857262126 637 158 153 142
12.7133808631905 108.624229424936 638 124 115 110
10.9563391840197 110.191086761963 637 157 146 141
12.6934539339379 110.191086761963 637 130 119 114
10.9907389930747 112.279624436565 639 132 120 111
9.26264307350866 112.455335898907 640 154 140 130
9.26264307350866 114.200631723001 640 157 148 135
14.4532226378338 110.36407119958 638 157 145 138
14.4758765918116 108.794486837828 639 161 149 140
12.7133808631905 112.103912974223 638 132 107 102
10.9735390885472 113.843754748866 638 168 161 150
9.29158883311338 116.308258570679 642 153 150 136
11.0079388976023 115.945927547094 640 153 150 136
9.26264307350866 117.691223371188 640 143 145 135
7.54083895956949 118.059008444223 642 149 151 141
12.7133808631905 113.843754748866 638 190 195 183
14.4985305457894 112.455335898907 640 161 147 138
16.1423024550713 104.814939148767 636 145 140 120
17.9610141905485 101.824211640354 639 132 125 102
16.1676834337742 106.716857262126 637 145 137 120
16.1930644124771 108.624229424936 638 143 133 116
16.2184453911801 110.537055637197 639 138 130 113
14.4532226378338 113.843754748866 638 167 170 156
16.243826369883 112.455335898907 640 137 129 113
17.9891221939766 108.96474425072 640 121 114 94
12.7133808631905 115.58359652351 638 149 146 132
25.5050506298838 39.0450071013495 611 136 125 102
25.4215643757761 37.2564421465133 609 138 125 102
23.7217902158334 33.8792036568496 608 148 138 113
25.4215643757761 35.5956840888993 609 139 128 105
27.2157328887271 37.439971418171 612 137 124 101
23.6827741135047 32.1681772742502 607 147 137 110
25.3798212487223 33.8792036568496 608 137 127 102
27.1712627369481 35.7125828872208 611 140 127 103
27.349143344064 40.9777411017586 615 138 128 103
27.349143344064 39.3006208957937 615 139 126 102
29.2622494325495 46.3831594572116 620 136 126 101
29.2622494325495 44.6924041276209 620 133 125 100
29.3094466090536 48.151453359039 621 135 125 100
27.7049045582957 51.7044033110448 623 136 128 103
29.3566437855577 49.9252013103167 622 137 127 100
21.9911810277375 30.4626049411012 606 149 139 112
21.8823137949269 27.0230081476189 603 150 142 115
21.9548919501339 28.7624866574024 605 148 140 113
23.6827741135047 30.5128732660865 607 146 136 109
25.3798212487223 32.2211726239607 608 139 129 102
23.6047419088474 28.7624866574024 605 145 137 110
25.3380781216685 30.5128732660865 607 139 129 102
27.0823224333902 33.9349260312852 609 139 126 102
27.0823224333902 32.2741679736712 609 139 130 100
21.8097356397198 25.2944377367359 601 150 142 117
19.9022973568799 16.8721114201983 593 137 130 100
21.6645793293057 20.2419874507595 597 149 143 116
21.5920011740987 18.5515953860286 595 149 143 116
21.7371574845128 21.943287614391 599 150 142 117
29.2150522560454 42.9322912999689 619 133 125 100
29.2150522560454 41.2442629951034 619 137 127 102
27.7938448618537 55.2791694608517 625 131 124 101
28.9790663735248 35.887931084703 614 139 126 102
29.0262635500289 37.6235006898287 615 140 127 103
29.1678550795413 39.4923312416268 618 138 125 101
30.9530047621402 41.3108934684396 620 135 125 98
30.9030805609109 39.5562346902379 619 141 131 106
31.0528531645987 43.1403637941529 622 137 129 102
31.0528531645987 44.8365731731939 622 136 128 103
30.8032321584524 37.7458535376005 617 139 128 105
31.1027773658279 46.6075940997465 623 136 128 103
31.1527015670572 48.3840690757493 624 139 129 104
29.4982353150701 51.8703885544189 625 137 127 100
31.2026257682865 50.1659981012025 625 139 129 102
27.8383150136326 57.0747336099306 626 133 124 101
23.4876936018614 25.3365249875458 602 152 143 120
23.5657258065187 27.0678224231539 604 147 139 114
25.2963349946147 28.8100279576625 606 136 128 101
25.2545918675609 27.1126366986889 605 142 134 109
26.9933821298323 28.8575692579227 607 137 127 100
27.0378522816112 30.5631415910718 608 139 130 100
23.4486774995327 23.655495876923 601 152 143 120
25.2128487405071 25.4206994891656 604 142 133 110
23.409661397204 21.9799208157506 600 149 143 118
23.3316291925467 20.2758936273939 598 149 143 118
23.2535969878893 18.5827745379379 596 152 144 117
28.1051359243064 71.409612795445 632 134 126 101
28.1496060760854 73.2488093401263 633 133 125 98
24.7752249787076 82.1385466792432 635 145 138 115
23.0435642782397 83.8702073797111 635 147 140 117
23.0798533558433 85.7366741716438 636 145 138 115
24.8142410810363 80.5335109960647 636 148 140 115
26.5486288062293 78.7991232708717 636 142 132 107
26.5486288062293 80.5335109960647 636 138 130 105
26.5068856791755 82.1385466792432 635 136 129 106
24.8532571833649 84.1343655131905 637 146 139 116
19.6727479617637 94.70549522779 638 128 122 97
19.703582989917 96.596505242249 639 127 119 94
21.4461517892854 98.3390740416174 639 131 123 98
19.703582989917 98.3390740416174 639 127 121 96
19.7344180180702 100.238265130252 640 126 119 96
21.410555786081 13.5688658629733 590 146 140 113
19.8351732511231 13.5918639407072 591 137 129 102
21.4831339412881 15.2292606557276 592 150 142 115
19.8687353040015 15.2292606557276 592 136 129 99
21.410555786081 11.9599212751371 590 147 141 116
19.8016111982447 11.9599212751371 590 136 130 103
19.7680491453664 10.3334326590172 589 140 132 105
23.2145808855607 16.9290156745666 595 153 145 118
21.5557120964951 16.9005635473825 594 146 139 109
23.0975325785746 13.614862018441 592 152 146 121
23.175564783232 15.2807108606456 594 150 144 117
9.85554529425952 3.80238753644508 573 190 182 155
11.4181304617683 5.36497270395387 573 175 165 138
14.5940627541918 5.38369861217011 575 173 161 132
16.3026419882913 7.01218772329554 580 145 134 103
17.9459863851826 7.03636768096208 582 140 128 99
18.0384914696423 8.66794708167243 585 135 126 96
16.218317978007 5.40242452038636 577 148 136 107
9.82114548520451 2.23198455962063 571 243 236 216
12.9807156292771 5.36497270395387 573 176 166 139
19.6002388809745 7.06054763862861 584 149 137 108
19.734487092488 8.71239809234767 588 139 129 102
23.0195003739173 11.9599212751371 590 148 144 120
21.3742667084775 8.72721509590608 589 153 145 120
21.4468448636846 10.3685207155843 591 152 144 119
16.1339939677228 3.80902346582805 574 193 181 154
17.7918112444164 3.82893125397698 577 158 146 119
17.8534813007229 5.4211504286026 579 143 131 102
19.5331147752177 5.44923929092697 582 148 136 107
19.4324286165826 3.84220311274293 579 163 154 124
24.9206468511303 16.9859199289349 597 147 139 114
25.004133105238 18.6763119936658 599 148 140 115
24.7954174699689 13.6608581739087 594 150 144 119
24.8789037240765 15.3321610655636 596 149 141 116
25.1293624863994 22.0531872184697 602 145 139 114
25.0876193593456 20.3776121572973 601 145 139 114
25.1711056134532 23.7342163290925 603 145 136 113
9.83834538973201 -2.44368096407248 572 253 247 230
18.0076564414891 -8.86527675622539 584 249 239 222
19.6673629867312 -10.4936737819975 586 255 251 235
21.4468448636846 -13.806553472837 591 242 234 217
