ply
format ascii 1.0
element vertex 705
property float x
property float y
property float z
property float nx
property float ny
property float nz
element face 0
property list uchar int vertex_indices
end_header
-1.2015747968588 -30.4673034162875 636 0.005871 0.615318 -0.788257
-1.2015747968588 -11.3890384391645 636 -0.054431 -0.691575 -0.720251
-1.19779625976175 -32.1004279617904 634 0.01157 0.647974 -0.761574
-1.19590699121323 -0.978076653629078 633 0.144002 -0.989291 -0.023826
-1.19590699121323 -9.60910990871691 633 0.022235 -0.725962 -0.687376
-1.19590699121323 -33.7760030229628 633 0.032367 0.671025 -0.740728
-1.19401772266471 -7.87045001400629 632 0.086687 -0.766334 -0.636568
-1.19401772266471 -35.446124034685 632 0.04559 0.708132 -0.704607
-1.19401772266471 -37.1696036609774 632 0.088609 0.730464 -0.677179
-1.19023918556767 -6.12751794977807 630 0.13449 -0.812432 -0.567334
-1.18834991701915 -74.7297338154894 629 0.074404 -0.569498 -0.818619
-1.18834991701915 -38.7084642210328 629 0.093696 0.764021 -0.638352
-1.18457137992211 -2.67865028754099 627 0.1985 -0.937381 -0.286208
-1.18457137992211 -65.9428968862085 627 0.004878 0.059009 -0.998246
-1.18457137992211 -64.2330523835418 627 0.002722 0.063785 -0.99796
-1.18457137992211 -57.393674372875 627 0.007151 -0.249778 -0.968277
-1.18268211137359 -67.544842279802 626 -0.011012 0.072724 -0.997291
-1.18268211137359 -4.38149559596492 626 0.171159 -0.899223 -0.402619
-1.18268211137359 -55.5950199342112 626 0.003204 -0.30782 -0.951439
-1.18268211137359 -59.0092548900943 626 -0.046507 -0.151295 -0.987394
-1.18268211137359 -62.4234898459774 626 -0.047279 -0.01452 -0.998776
-1.18268211137359 -60.7163723680358 626 -0.056388 -0.09731 -0.993656
-1.18079284282507 -72.550114530378 625 -0.02764 -0.158971 -0.986896
-1.17890357427655 -40.1024292057957 624 0.047281 0.746837 -0.663324
-1.17890357427655 -69.0307074901469 624 -0.042252 0.027636 -0.998725
-1.17890357427655 -53.7157366337257 624 -0.066981 -0.287103 -0.955555
-1.17701430572803 -43.436035299857 623 0.067534 0.523427 -0.84939
-1.17701430572803 -50.2317809149215 623 -0.067842 -0.076283 -0.994776
-1.17701430572803 -51.9307173186876 623 -0.057204 -0.197668 -0.978598
-1.17701430572803 -70.6190177601147 623 -0.099774 0.26126 -0.960098
-1.17512503717951 -45.0625239159769 622 -0.027019 0.327356 -0.944515
-1.17512503717951 -48.4549426740588 622 -0.053032 0.076539 -0.995655
-1.17134650008247 -41.536117681503 620 -0.066058 0.579019 -0.812634
-1.16945723153395 -46.5332088579036 619 -0.122272 0.162651 -0.979078
0.519408829508192 -46.608383670275 620 -0.231817 0.16883 -0.957996
0.520246585684818 -44.9900761283306 621 -0.141683 0.337839 -0.930479
0.520246585684818 -41.603111419699 621 -0.097877 0.63428 -0.766883
0.521084341861444 -48.4549426740588 622 -0.163635 0.087593 -0.982625
0.521084341861444 -43.3663145369359 622 -0.094986 0.553558 -0.827376
0.52192209803807 -50.2317809149215 623 -0.179154 -0.060352 -0.981968
0.522759854214696 -40.1024292057957 624 -0.055607 0.753416 -0.655189
0.522759854214696 -52.0140732052344 624 -0.137996 -0.193521 -0.971343
0.522759854214696 -53.7157366337257 624 -0.154356 -0.255652 -0.954367
0.522759854214696 -70.7323709186382 624 -0.124084 0.154026 -0.980244
0.523597610391322 -57.2106004514304 625 -0.228209 -0.239297 -0.943746
0.523597610391322 -60.6193813578632 625 -0.185791 -0.088301 -0.978614
0.524435366567949 -55.5950199342112 626 -0.125427 -0.291353 -0.948357
0.524435366567949 -59.0092548900943 626 -0.130126 -0.174562 -0.97601
0.524435366567949 -4.38149559596492 626 0.094087 -0.868581 -0.486534
0.524435366567949 -69.2519597577435 626 -0.028247 -0.018571 -0.999428
0.524435366567949 -72.6661947136266 626 -0.041964 -0.316742 -0.947583
0.525273122744575 -64.2330523835418 627 -0.077953 0.080016 -0.993741
0.525273122744575 -62.5232078808751 627 -0.053872 0.045923 -0.997491
0.525273122744575 -2.67865028754099 627 0.123628 -0.92539 -0.358286
0.526110878921201 -67.7606404979483 628 0.158813 -0.048526 -0.986115
0.526110878921201 -38.6469245322871 628 -0.03115 0.783457 -0.620665
0.526948635097827 -66.1532410549045 629 0.067995 0.01202 -0.997613
0.527786391274453 -6.12751794977807 630 0.086998 -0.811653 -0.577625
0.528624147451079 -74.9673482314369 631 0.062704 -0.521214 -0.851119
0.528624147451079 -37.1107909969569 631 -0.055848 0.72661 -0.684776
0.530299659804331 -35.5022096739804 633 -0.094782 0.678865 -0.72812
0.530299659804331 -7.88290325769934 633 0.013424 -0.711543 -0.702514
0.531137415980957 -9.6242901771351 634 -0.067299 -0.641151 -0.764458
0.531137415980957 -33.8293616375331 634 -0.113556 0.654937 -0.747102
0.531975172157583 -32.1510595516355 635 -0.165137 0.617953 -0.768677
0.53281292833421 -0.982712088006467 636 -0.050134 0.948709 -0.312149
0.533650684510836 -30.5152079814075 637 -0.152444 0.596119 -0.788291
0.533650684510836 -28.7780932314893 637 -0.207245 0.56829 -0.796302
0.533650684510836 -11.4069457323078 637 -0.156695 -0.640153 -0.752098
0.534488440687462 -27.0834289972409 638 -0.228888 0.476902 -0.848631
0.535326196864088 -25.3833107135421 639 -0.209777 0.380481 -0.900682
0.536163953040714 -18.4418509081122 640 -0.325128 -0.192555 -0.925859
0.53700170921734 -21.9667119977936 641 -0.336085 0.142456 -0.930996
0.53700170921734 -14.9746206025187 641 -0.245161 -0.511188 -0.823762
0.53700170921734 -13.2265977536999 641 -0.183875 -0.606334 -0.77366
0.537839465393966 -23.7517313128317 642 -0.232132 0.250681 -0.939826
0.538677221570593 -20.281773982513 643 -0.315458 -0.002907 -0.948935
0.538677221570593 -16.774820185975 643 -0.260552 -0.381763 -0.886775
0.553756832749863 -80.3341278139711 661 -0.055558 -0.972573 -0.225867
0.557107857456367 0.785950155234351 665 -0.116135 0.982532 -0.145408
0.559621125986245 -86.6498249920564 668 0.885594 -0.434447 -0.164255
0.56716093157588 -85.9710670150015 677 0.993667 0.070636 -0.087389
0.567998687752507 -89.7959008244489 678 0.763547 -0.539819 -0.354389
0.572187468635637 -84.8704388206217 683 0.992284 0.0768 -0.097339
0.588104835991533 -94.8888881398892 702 0.572336 0.023511 -0.819682
0.63418142570597 -108.516275888551 757 0.831288 0.414546 -0.370287
0.635856938059222 -106.733164983165 759 0.831288 0.414546 -0.370287
2.2172937209024 -45.0625239159769 622 -0.218342 0.449065 -0.866411
2.2172937209024 -48.4549426740588 622 -0.283649 0.177581 -0.942342
2.2172937209024 -46.7587332950178 622 -0.26181 0.314468 -0.91245
2.22442328270595 -50.3124097767432 624 -0.235678 -0.015282 -0.971711
2.22798806360772 -52.0974290917813 625 -0.211669 -0.137694 -0.967593
2.22798806360772 -43.5754768256993 625 -0.09602 0.659318 -0.745707
2.23155284450949 -4.38149559596492 626 0.085848 -0.889737 -0.448329
2.23155284450949 -41.9380801106789 626 -0.098367 0.734016 -0.671971
2.23155284450949 -53.8879024562697 626 -0.169389 -0.241196 -0.955579
2.23155284450949 -55.5950199342112 626 -0.241761 -0.265668 -0.933259
2.23155284450949 -57.3021374121527 626 -0.270211 -0.23712 -0.933145
2.23155284450949 -59.0092548900943 626 -0.242805 -0.180656 -0.953105
2.23155284450949 -60.7163723680358 626 -0.216884 -0.111465 -0.969813
2.23511762541126 -2.67865028754099 627 0.085451 -0.935464 -0.342935
2.23511762541126 -69.3625858915418 627 -0.004369 -0.063377 -0.99798
2.23511762541126 -67.6527413888752 627 0.138174 0.006372 -0.990387
2.23511762541126 -62.5232078808751 627 -0.178412 0.018476 -0.983782
2.23868240631304 -40.359496059679 628 -0.130292 0.771793 -0.622382
2.23868240631304 -64.3354974431647 628 -0.099895 0.047549 -0.993861
2.23868240631304 -66.0480689705565 628 0.041241 0.000516 -0.999149
2.23868240631304 -71.185783552732 628 0.390508 -0.146561 -0.908858
2.24224718721481 -38.7084642210328 629 -0.156788 0.748613 -0.644202
2.24937674901835 -6.13724416874597 631 -0.000678 -0.739011 -0.673693
2.24937674901835 -37.1107909969569 631 -0.194135 0.679313 -0.707704
2.25294152992012 -73.3626758131182 632 0.164084 -0.555186 -0.81538
2.25294152992012 -35.446124034685 632 -0.236018 0.653221 -0.719443
2.2565063108219 -7.88290325769934 633 -0.08512 -0.676196 -0.731788
2.26007109172367 -33.8293616375331 634 -0.269815 0.611509 -0.743812
2.26363587262544 -9.6394704455533 635 -0.159317 -0.553539 -0.817442
2.26720065352721 -32.2016911414806 636 -0.283077 0.572913 -0.76918
2.27076543442899 -28.7780932314893 637 -0.377084 0.50044 -0.779338
2.27076543442899 -11.4069457323078 637 -0.20246 -0.608269 -0.767476
2.27433021533076 -27.0834289972409 638 -0.40064 0.460517 -0.792094
2.27433021533076 -30.5631125465274 638 -0.329443 0.532757 -0.779511
2.27433021533076 -0.985802377591393 638 0.012438 0.700638 -0.713409
2.27789499623253 -25.3833107135421 639 -0.437895 0.352049 -0.82723
2.27789499623253 -14.9278979173314 639 -0.34346 -0.480174 -0.807136
2.2814597771343 -13.2059634358314 640 -0.254814 -0.57824 -0.775054
2.28502455803608 -18.4706663001561 641 -0.440126 -0.187338 -0.878176
2.28858933893785 -16.7487318186562 642 -0.361731 -0.340628 -0.867826
2.29215411983962 -76.3930347271219 643 0.005945 -0.828662 -0.559718
2.29215411983962 -23.7887277790511 643 -0.40891 0.216802 -0.886448
2.29215411983962 -22.035250880782 643 -0.43892 0.121377 -0.89029
2.29928368164317 -20.3448588160512 645 -0.431534 -0.060138 -0.90009
2.39553276599102 0.794223314763134 672 -0.230946 0.93353 -0.274201
2.41692145140165 -87.9469780607998 678 0.990689 0.076475 -0.112639
2.42048623230343 -89.9283431560484 679 0.848888 -0.510089 -0.138559
2.43474535591051 -83.0078809333469 683 0.992284 0.0768 -0.097339
2.44187491771406 -92.5910090823705 685 -0.832332 0.552013 0.050048
2.45969882222292 -87.6219146829409 690 -0.959454 -0.172577 -0.222858
2.4882170694371 -96.2516739727427 698 0.314251 -0.087123 -0.945334
2.50960575484773 -98.9988776655443 704 0.142849 -0.647427 -0.74862
2.51673531665128 -87.7284477413747 706 0.997024 0.076945 0.004701
2.52030009755305 -101.348754363547 707 -0.911072 -0.366034 -0.189647
2.53099444025837 -103.714993209902 710 -0.999994 0 0.003565
3.93237851682411 -46.9842577321321 625 -0.237774 0.470779 -0.849606
3.93867032245103 -45.3523150665619 626 -0.188814 0.604618 -0.773813
3.93867032245103 -48.766550022445 626 -0.214189 0.273898 -0.937605
3.93867032245103 -60.7163723680358 626 -0.408383 -0.093221 -0.908038
3.94496212807795 -62.5232078808751 627 -0.337483 -0.002719 -0.941328
3.94496212807795 -2.67865028754099 627 -0.009389 -0.926764 -0.375526
3.95125393370487 -4.39549398445043 628 -0.002585 -0.864376 -0.50284
3.95125393370487 -57.4852113335973 628 -0.218664 -0.251385 -0.942864
3.95125393370487 -64.3354974431647 628 -0.268119 0.048722 -0.962153
3.95125393370487 -59.1977828609892 628 -0.323885 -0.131482 -0.936916
3.95754573933179 -50.7155540858517 629 0.075567 0.088061 -0.993245
3.95754573933179 -71.2991367112555 629 0.524346 -0.185002 -0.831165
3.95754573933179 -69.5838381591385 629 0.496478 -0.258792 -0.828575
3.95754573933179 -67.8685396070215 629 0.208532 -0.129351 -0.969424
3.95754573933179 -66.1532410549045 629 0.156522 -0.06262 -0.985687
3.95754573933179 -43.8543598773838 629 -0.146842 0.68195 -0.716506
3.95754573933179 -52.4308526379687 629 0.071133 -0.110489 -0.991329
3.95754573933179 -54.1461511900856 629 0.08674 -0.280125 -0.956037
3.95754573933179 -55.8614497422026 629 -0.041536 -0.264157 -0.963585
3.96383754495871 -92.0287967918844 630 -0.895149 -0.240844 -0.375104
3.97012935058563 -42.2730488016587 631 -0.215826 0.720054 -0.6595
3.97642115621254 -37.1696036609774 632 -0.308562 0.642105 -0.701777
3.97642115621254 -40.6165629135623 632 -0.284609 0.65994 -0.695325
3.97642115621254 -6.14697038771387 632 -0.109091 -0.710872 -0.69481
3.98271296183946 -38.9546229760155 633 -0.298031 0.671442 -0.678486
3.98271296183946 -35.5022096739804 633 -0.341102 0.622698 -0.704199
3.98900476746638 -7.89535650139239 634 -0.120894 -0.582285 -0.803946
3.98900476746638 -73.5948361796155 634 0.645555 -0.611664 -0.457303
3.9952965730933 -91.0275233675426 635 0.987223 -0.048045 -0.151931
3.9952965730933 -9.6394704455533 635 -0.210699 -0.520511 -0.82745
4.00158837872022 -11.3890384391645 636 -0.257889 -0.566861 -0.782408
4.00158837872022 -33.9360788666736 636 -0.374696 0.559438 -0.739346
4.02046379560097 -95.0860626882798 639 0.335548 0.940971 0.044511
4.02046379560097 -14.9278979173314 639 -0.390474 -0.450008 -0.803133
4.02046379560097 -32.3535859110158 639 -0.362214 0.527364 -0.768562
4.02675560122789 -28.9136258526738 640 -0.448408 0.426199 -0.785675
4.02675560122789 -30.6589216767673 640 -0.438119 0.447182 -0.779795
4.02675560122789 -13.2059634358314 640 -0.313965 -0.544373 -0.777872
4.02675560122789 -16.6965550840186 640 -0.471413 -0.313406 -0.824346
4.02675560122789 -25.4230342044866 640 -0.547219 0.292589 -0.784183
4.03304740685481 -18.4706663001561 641 -0.540616 -0.121081 -0.832511
4.03304740685481 -0.990437811968782 641 0.011837 0.921757 -0.387588
4.03304740685481 -27.2107805442498 641 -0.47973 0.368604 -0.796235
4.03304740685481 -23.7147348466123 641 -0.571746 0.198639 -0.796021
4.03933921248173 -22.0009814392878 642 -0.57207 0.084898 -0.815799
4.03933921248173 -76.2742275191482 642 -0.731847 -0.494783 -0.468604
4.04563101810865 -90.4208499132742 643 0.651802 0.571595 -0.49843
4.05192282373557 -20.3133163992821 644 -0.550831 -0.055479 -0.832771
4.06450643498941 -83.796088240821 646 0.981101 0.103385 -0.163559
4.07709004624324 -87.5897428983592 648 -0.720177 0.42883 -0.545389
4.07709004624324 -85.8226308764645 648 -0.225915 -0.294127 -0.928683
4.08967365749708 -89.6326476823536 650 -0.720177 0.42883 -0.545389
4.08967365749708 -82.5423833969733 650 -0.832757 -0.537834 -0.13134
4.14629990813935 -81.8881686424447 659 0.12782 0.984525 -0.119881
4.1651753250201 -80.45566204667 662 -0.189631 -0.813342 -0.550014
4.22180157566237 0.793041434830451 671 -0.191478 0.955869 -0.222824
5.58265598792812 -90.4219447844071 619 -0.742533 -0.593687 -0.310128
5.60069364863225 -92.4075820491733 621 -0.681261 -0.668871 -0.297481
5.60069364863225 -63.6183820258045 621 -0.848091 0.155305 -0.506579
5.60069364863225 -68.698829088752 621 -0.854203 0.317137 -0.41202
5.60971247898432 -89.1639677710418 622 -0.848355 -0.452921 -0.274148
5.60971247898432 -62.0246177063865 622 -0.840588 0.011676 -0.541549
5.60971247898432 -67.1132458435093 622 -0.809243 0.257383 -0.528091
5.60971247898432 -70.5056646015912 622 -0.851877 0.346517 -0.392724
5.60971247898432 -55.2397801902226 622 -0.61183 0.036915 -0.790127
5.61873130933638 -65.5222085488164 623 -0.79834 0.212993 -0.563283
5.61873130933638 -57.0275265299859 623 -0.676051 -0.051564 -0.735048
5.61873130933638 -48.5328445111554 623 -0.331759 0.380997 -0.863005
5.62775013968845 -53.7157366337257 624 -0.530606 -0.063539 -0.845234
5.62775013968845 -60.5223903476907 624 -0.805477 -0.029072 -0.591913
5.62775013968845 -79.2406880610944 624 -0.976186 -0.189361 -0.105844
5.62775013968845 -80.9423514895857 624 0.980444 0.192886 -0.03905
5.62775013968845 -82.6440149180769 624 -0.961578 -0.221809 -0.161763
5.62775013968845 -46.9090829197607 624 -0.28782 0.532745 -0.795828
5.63676897004051 -45.2798672789157 625 -0.283204 0.601318 -0.747136
5.63676897004051 -52.0974290917813 625 -0.494491 0.084954 -0.865021
5.63676897004051 -50.3930386385649 625 -0.410631 0.214871 -0.886122
5.63676897004051 -58.9149909046468 625 -0.741822 -0.103115 -0.662621
5.63676897004051 -84.4808477028928 625 -0.978668 -0.083076 -0.187903
5.63676897004051 -87.8896286093256 625 -0.950654 -0.298265 -0.085414
5.64578780039258 -86.323134537159 626 -0.964014 -0.175036 -0.200096
5.65480663074464 -72.7822748968752 627 0.952064 0.157512 -0.262229
5.65480663074464 -4.38849479020768 627 -0.09284 -0.854545 -0.511012
5.65480663074464 -2.67865028754099 627 -0.065152 -0.913189 -0.402294
5.67284429144877 -78.1603309197234 629 -0.652894 0.035887 -0.756599
5.67284429144877 -43.8543598773838 629 -0.321605 0.650523 -0.688034
5.6908819521529 -74.9673482314369 631 0.898244 0.080278 -0.432103
5.6908819521529 -42.2730488016587 631 -0.363269 0.605264 -0.708301
5.70891961285703 -76.931169298402 633 -0.959834 0.130178 -0.248541
5.70891961285703 -6.15669660668178 633 -0.093777 -0.670249 -0.736188
5.70891961285703 -35.5022096739804 633 -0.392849 0.587223 -0.707699
5.71793844320909 -7.89535650139239 634 -0.178332 -0.531068 -0.82835
5.72695727356116 -9.6394704455533 635 -0.223665 -0.44225 -0.868556
5.72695727356116 -39.0777023535069 635 -0.38414 0.623157 -0.681258
5.72695727356116 -37.346041653039 635 -0.404979 0.612025 -0.679277
5.72695727356116 -40.8093630539747 635 -0.444594 0.619956 -0.646522
5.72695727356116 -33.8827202521033 635 -0.416998 0.548639 -0.724643
5.74499493426529 -11.4069457323078 637 -0.257533 -0.532177 -0.806514
5.74499493426529 -16.6182899820623 637 -0.52138 -0.223761 -0.823464
5.74499493426529 -14.8811752321441 637 -0.445751 -0.364875 -0.817418
5.74499493426529 -32.2523227313256 637 -0.451061 0.472245 -0.757317
5.75401376461735 -18.3842201240244 638 -0.562226 -0.07752 -0.823342
5.75401376461735 -13.1646948000945 638 -0.326736 -0.484109 -0.811716
5.76303259496942 -30.6110171116474 639 -0.479052 0.426414 -0.767255
5.77205142532148 -21.9324425562994 640 -0.631846 0.117638 -0.766115
5.77205142532148 -25.4230342044866 640 -0.606119 0.246189 -0.756314
5.77205142532148 -27.1683300285802 640 -0.55644 0.325825 -0.764338
5.77205142532148 -28.9136258526738 640 -0.547261 0.357083 -0.756966
5.78107025567355 -0.990437811968782 641 -0.013284 0.924744 -0.380357
5.78107025567355 -23.7147348466123 641 -0.624957 0.1886 -0.757535
5.79008908602561 -20.2502315657439 642 -0.587354 -0.003647 -0.809322
6.0245786751793 0.789495795032401 668 -0.139667 0.957621 -0.251902
7.17671745217595 -77.5898403931549 611 -0.632708 -0.058553 -0.772174
7.18846330725316 -81.0547069388831 612 -0.545839 -0.178401 -0.818677
7.18846330725316 -79.3857678070936 612 -0.631601 -0.099412 -0.768894
7.18846330725316 -67.7031938845672 612 -0.784174 0.114168 -0.609948
7.18846330725316 -69.3721330163567 612 -0.766063 0.070074 -0.638935
7.20020916233037 -82.8588154269972 613 -0.573681 -0.278142 -0.770407
7.21195501740759 -89.691557508281 614 -0.4847 -0.606271 -0.630477
7.21195501740759 -84.6683779645617 614 -0.580236 -0.345932 -0.737331
7.21195501740759 -76.2964120583627 614 -0.634987 -0.034033 -0.771773
7.21195501740759 -66.250052970924 614 -0.802164 0.194643 -0.564488
7.2237008724848 -91.5147551694712 615 -0.344253 -0.765295 -0.543888
7.2237008724848 -88.1605147575413 615 -0.518237 -0.554762 -0.650899
7.2237008724848 -86.4833945515764 615 -0.562205 -0.444693 -0.697261
7.2237008724848 -71.389312697892 615 -0.768422 0.175021 -0.615545
7.23544672756201 -63.1061567276902 616 -0.78476 0.215319 -0.581196
7.23544672756201 -64.7860039583802 616 -0.771883 0.223205 -0.595296
7.23544672756201 -74.8650873425207 616 -0.797914 -0.055424 -0.600218
7.23544672756201 -73.1852401118307 616 -0.805059 0.029748 -0.592448
7.25893843771643 -54.8845404462341 618 -0.537388 0.371063 -0.757315
7.27068429279364 -61.7254636016933 619 -0.798035 0.127264 -0.589019
7.27068429279364 -56.6613786870967 619 -0.635243 0.373125 -0.676198
7.28243014787085 -53.3714049886377 620 -0.510097 0.263383 -0.818798
7.28243014787085 -51.680649659047 620 -0.415153 0.342935 -0.842641
7.28243014787085 -58.4436709774097 620 -0.718968 0.195631 -0.666943
7.29417600294806 -60.2314173171729 621 -0.804638 0.060404 -0.590685
7.29417600294806 -48.3770408369622 621 -0.248895 0.475732 -0.843641
7.30592185802527 -50.1511520530998 622 -0.356064 0.390613 -0.848905
7.30592185802527 -45.0625239159769 622 -0.210137 0.561069 -0.800652
7.31766771310248 -46.8339081073892 623 -0.252914 0.54645 -0.79839
7.35290527833412 -94.8587219268667 626 -0.41249 -0.827763 -0.380343
7.35290527833412 -2.67437811802338 626 -0.114475 -0.90728 -0.404646
7.35290527833412 -43.6451975886204 626 -0.323654 0.6198 -0.71491
7.36465113341133 -42.0050738488748 627 -0.31099 0.646305 -0.696832
7.36465113341133 -4.38849479020768 627 -0.127909 -0.825798 -0.549269
7.4351262638746 -6.15669660668178 633 -0.149784 -0.643776 -0.750412
7.4351262638746 -33.7760030229628 633 -0.426755 0.533684 -0.73011
7.4351262638746 -35.5022096739804 633 -0.424334 0.578475 -0.69664
7.4351262638746 -40.6808296270331 633 -0.401577 0.612742 -0.68065
7.44687211895181 -37.2872289890185 634 -0.411778 0.607835 -0.678952
7.44687211895181 -39.0161626647612 634 -0.402787 0.615135 -0.677769
7.44687211895181 -14.8110912043632 634 -0.362985 -0.231308 -0.902629
7.44687211895181 -16.540024880106 634 -0.409481 -0.095323 -0.907325
7.45861797402902 -7.90780974508544 635 -0.219296 -0.413407 -0.883744
7.45861797402902 -9.6394704455533 635 -0.195634 -0.379763 -0.904161
7.45861797402902 -11.3711311460212 635 -0.231373 -0.413071 -0.880817
7.45861797402902 -13.102791846489 635 -0.292479 -0.317841 -0.901905
7.45861797402902 -18.2977739478926 635 -0.47865 0.000791 -0.878005
7.45861797402902 -32.1510595516355 635 -0.448704 0.43932 -0.778244
7.47036382910623 -25.2641402407085 636 -0.550661 0.187972 -0.813289
7.48210968418344 -21.8296342318167 637 -0.571345 0.156391 -0.805671
7.48210968418344 -30.5152079814075 637 -0.484041 0.385348 -0.785628
7.49385553926065 -23.6037454479543 638 -0.590819 0.189065 -0.784338
7.49385553926065 -27.0834289972409 638 -0.550496 0.269752 -0.790056
7.49385553926065 -28.8232707718842 638 -0.509391 0.338099 -0.791334
7.49385553926065 -20.1240618986677 638 -0.559756 0.066438 -0.82599
7.51734724941507 -0.988892667176319 640 0.049128 0.753697 -0.655383
7.82273948142256 0.787132035167034 666 -0.054429 0.971993 -0.228619
8.81398379963559 -67.3713154831722 609 -0.680548 0.131308 -0.720841
8.81398379963559 -77.3358638288566 609 -0.530448 -0.182127 -0.827922
8.82845667943794 -69.1454266993097 610 -0.713512 0.110904 -0.69181
8.82845667943794 -65.8184565346313 610 -0.677416 0.124421 -0.725002
8.8429295592403 -70.9249919648975 611 -0.721983 0.052635 -0.689906
8.8429295592403 -80.9222646072836 611 -0.440783 -0.169702 -0.881426
8.8429295592403 -79.2560525002193 611 -0.403316 -0.162862 -0.900451
8.8429295592403 -64.2601435366402 611 -0.513364 0.307044 -0.801363
8.85740243904266 -61.0274373574092 612 -0.609142 0.446912 -0.655145
8.85740243904266 -76.0478895435146 612 -0.526055 -0.107052 -0.843686
8.85740243904266 -74.3789504117251 612 -0.514524 -0.121893 -0.848768
8.85740243904266 -72.7100112799356 612 -0.616462 -0.069374 -0.784322
8.87187531884502 -84.5304815835119 613 -0.34105 -0.404227 -0.848697
8.87187531884502 -91.2171462095705 613 -0.243572 -0.763852 -0.597664
8.87187531884502 -82.8588154269972 613 -0.395927 -0.275428 -0.876003
8.88634819864737 -62.9012666084444 614 -0.65196 0.309959 -0.692007
8.88634819864737 -57.8780870647251 614 -0.39356 0.558178 -0.730444
8.88634819864737 -59.5524802459648 614 -0.456107 0.475605 -0.752175
8.88634819864737 -89.691557508281 614 -0.299438 -0.67997 -0.669311
8.88634819864737 -86.3427711458014 614 -0.379294 -0.517173 -0.767247
8.90082107844973 -88.1605147575413 615 -0.326251 -0.62356 -0.710446
8.90082107844973 -56.2952308442076 615 -0.289649 0.583436 -0.758753
8.91529395825209 -53.0270733435497 616 -0.206977 0.569018 -0.795851
8.91529395825209 -54.7069205742398 616 -0.271672 0.577858 -0.769594
8.91529395825209 -51.3472261128596 616 -0.134279 0.563597 -0.815063
8.9442397178568 -48.1433353256726 618 -0.111786 0.526763 -0.84263
8.9442397178568 -49.8286366058129 618 -0.176663 0.528707 -0.830216
8.97318547746152 -44.9176283406844 620 -0.124696 0.516221 -0.847329
8.98765835726387 -46.6835584826464 621 -0.157192 0.526053 -0.835798
9.00213123706623 -94.2525959081647 622 -0.271219 -0.912712 -0.30561
9.0455498764733 -43.5754768256993 625 -0.24896 0.595051 -0.764155
9.0455498764733 -41.8710863724829 625 -0.266381 0.632165 -0.727605
9.0455498764733 -2.67010594850577 625 -0.080737 -0.856096 -0.510472
9.06002275627566 -4.38149559596492 626 -0.108881 -0.819724 -0.562315
9.11791427548509 -33.6159271792521 630 -0.405542 0.578928 -0.707374
9.11791427548509 -35.3339527560942 630 -0.397914 0.602293 -0.692031
9.11791427548509 -38.7700039097785 630 -0.375619 0.62142 -0.687566
9.11791427548509 -40.4880294866206 630 -0.37567 0.604768 -0.702231
9.13238715528745 -31.9485331922551 631 -0.394805 0.49623 -0.77323
9.13238715528745 -37.1107909969569 631 -0.36477 0.627032 -0.688312
9.14686003508981 -14.764368519176 632 -0.249777 -0.11409 -0.961559
9.14686003508981 -16.4878481454684 632 -0.240741 0.022119 -0.970337
9.14686003508981 -26.8287259032229 632 -0.362483 0.212774 -0.907377
9.14686003508981 -25.1052462769305 632 -0.373725 0.188305 -0.908224
9.14686003508981 -18.2113277717608 632 -0.216994 0.143415 -0.965581
9.16133291489216 -30.3235897209277 633 -0.37921 0.386462 -0.840742
9.16133291489216 -28.5973830699101 633 -0.389827 0.268318 -0.880932
9.16133291489216 -13.061523210752 633 -0.193912 -0.243086 -0.950425
9.16133291489216 -19.9663498148223 633 -0.2901 0.225301 -0.930097
9.16133291489216 -6.15669660668178 633 -0.171533 -0.641155 -0.747995
9.17580579469452 -7.89535650139239 634 -0.174459 -0.518855 -0.836871
9.17580579469452 -11.3532238528778 634 -0.176849 -0.342906 -0.922572
9.17580579469452 -21.7268259073341 634 -0.425521 0.180072 -0.886852
9.17580579469452 -9.6242901771351 634 -0.185926 -0.426317 -0.88526
9.20475155429923 -23.5297525155155 636 -0.46064 0.171643 -0.870832
9.24817019370631 -0.987347522383856 639 0.052431 0.798833 -0.599264
9.62446506856759 0.785950155234351 665 -0.25893 -0.965743 -0.017188
10.4403420481946 -77.0818872645582 607 -0.311832 -0.308871 -0.898532
10.4747418572496 -75.6751057712425 609 -0.418408 -0.260076 -0.870227
10.4747418572496 -67.3713154831722 609 -0.488439 0.236623 -0.839903
10.4747418572496 -74.0143477136285 609 -0.404411 -0.248855 -0.88007
10.4919417617771 -65.8184565346313 610 -0.423947 0.28038 -0.861194
10.4919417617771 -70.8089117816489 610 -0.560393 0.053057 -0.826526
10.4919417617771 -72.4723968639881 610 -0.440862 -0.127882 -0.888418
10.4919417617771 -79.126337193345 610 -0.384351 -0.165761 -0.908184
10.5091416663047 -69.2587798578332 611 -0.528974 0.138138 -0.83732
10.5091416663047 -80.9222646072836 611 -0.200167 -0.25937 -0.944807
10.5091416663047 -64.2601435366402 611 -0.287184 0.395167 -0.872564
10.5263415708322 -61.0274373574092 612 -0.356296 0.511317 -0.782053
10.5263415708322 -86.0615243342516 612 -0.170758 -0.512322 -0.841646
10.5263415708322 -59.3584982256197 612 -0.280561 0.595131 -0.753064
10.5435414753597 -57.7838230792776 613 -0.242373 0.605057 -0.758394
10.5435414753597 -84.5304815835119 613 -0.154804 -0.427986 -0.890429
10.5435414753597 -82.8588154269972 613 -0.132087 -0.324252 -0.936704
10.5607413798872 -88.0171643270412 614 -0.134323 -0.610652 -0.780424
10.5607413798872 -89.691557508281 614 -0.129645 -0.722234 -0.67939
10.5779412844147 -56.2952308442076 615 -0.1641 0.596806 -0.785426
10.5779412844147 -91.5147551694712 615 -0.105592 -0.808301 -0.579224
10.5779412844147 -51.2638702263128 615 -0.013365 0.612718 -0.790189
10.5951411889422 -49.6673788821695 616 0.008019 0.559039 -0.829103
10.5951411889422 -47.9875316514795 616 0.02679 0.554457 -0.831781
10.5951411889422 -63.1061567276902 616 -0.590657 0.332166 -0.735384
10.5951411889422 -54.7069205742398 616 -0.102858 0.598163 -0.794746
10.5951411889422 -53.0270733435497 616 -0.049016 0.580276 -0.812944
10.6467409025247 -46.5332088579036 619 -0.021658 0.528663 -0.848555
10.6467409025247 -44.8451805530381 619 -0.00445 0.49159 -0.870815
10.6983406161072 -94.2525959081647 622 -0.119897 -0.911312 -0.393871
10.7155405206347 -43.436035299857 623 -0.078592 0.552808 -0.829594
10.7155405206347 -41.7370988960909 623 -0.120768 0.582104 -0.804096
10.7671402342172 -4.38149559596492 626 -0.092628 -0.790796 -0.60503
10.7671402342172 -38.5238451547958 626 -0.315753 0.594082 -0.739842
10.7671402342172 -40.2309626327373 626 -0.280692 0.581897 -0.763287
10.7671402342172 -2.67437811802338 626 -0.082757 -0.84647 -0.525965
10.7843401387447 -36.8755403408748 627 -0.329332 0.637868 -0.696179
10.8015400432722 -35.2217814775035 628 -0.332397 0.622841 -0.708224
10.8359398523272 -33.6159271792521 630 -0.293027 0.613151 -0.733608
10.8359398523272 -28.4618504487257 630 -0.077205 0.350458 -0.933391
10.8531397568547 -6.13724416874597 631 -0.104993 -0.66128 -0.742756
10.8531397568547 -19.9032649812842 631 1.2E-05 0.223129 -0.974789
10.8531397568547 -21.6240175828514 631 -0.02795 0.182262 -0.982853
10.8531397568547 -18.1825123797169 631 -0.006139 0.161467 -0.986859
10.8531397568547 -25.065522785986 631 -0.003676 0.183467 -0.983019
10.8531397568547 -26.7862753875533 631 -0.034612 0.206129 -0.977913
10.8531397568547 -31.9485331922551 631 -0.276608 0.520613 -0.807744
10.8703396613822 -16.4878481454684 632 -0.031017 0.040709 -0.998689
10.8703396613822 -9.59392964029871 632 -0.084197 -0.517845 -0.851321
10.8703396613822 -7.87045001400629 632 -0.086509 -0.592834 -0.800665
10.8703396613822 -23.3817666506381 632 -0.058177 0.172303 -0.983324
10.8875395659097 -14.7877298617696 633 -0.070593 -0.069867 -0.995055
10.8875395659097 -11.3353165597345 633 -0.125122 -0.379461 -0.916708
10.8875395659097 -30.3235897209277 633 -0.261362 0.39101 -0.882497
10.9047394704372 -13.0821575286205 634 -0.079916 -0.213127 -0.973751
10.9907389930747 -0.987347522383856 639 0.169498 0.834698 -0.523974
11.4207366062623 0.784768275301668 664 0.06485 0.971123 -0.229595
11.6959350787024 2.65805516732404 680 -0.323418 0.38004 -0.866585
12.0757191271058 -76.954898982409 606 -0.180415 -0.286161 -0.941043
12.115572985611 -70.5767514151517 608 -0.298958 -0.030023 -0.953794
12.115572985611 -72.2347824480406 608 -0.313363 -0.144746 -0.938537
12.115572985611 -73.8928134809295 608 -0.249075 -0.256131 -0.934001
12.115572985611 -75.5508445138185 608 -0.291309 -0.285259 -0.913108
12.1354999148637 -67.3713154831722 609 -0.358975 0.270433 -0.89331
12.1354999148637 -83.9788960593128 609 -0.283488 -0.413555 -0.865221
12.1354999148637 -78.9966218864706 609 -0.248733 -0.226996 -0.941597
12.1554268441163 -69.1454266993097 610 -0.473803 0.144935 -0.868622
12.1554268441163 -85.7802775227018 610 -0.238578 -0.540318 -0.806931
12.1554268441163 -60.8280012876137 610 -0.194488 0.546339 -0.81467
12.1554268441163 -59.1645162052745 610 -0.27706 0.625396 -0.729464
12.1554268441163 -80.7898222756842 610 -0.326493 -0.190042 -0.925898
12.175353773369 -82.588476714348 611 -0.238942 -0.345682 -0.90742
12.175353773369 -65.9263556437045 611 -0.324492 0.373003 -0.869237
12.1952807026216 -87.7304634660411 612 -0.120628 -0.625724 -0.770661
12.1952807026216 -57.6895590938302 612 -0.214967 0.685351 -0.69576
12.1952807026216 -64.3653156209882 612 -0.296714 0.464087 -0.834616
12.2550614903796 -89.8376349635062 615 -0.022734 -0.776938 -0.629167
12.2749884196322 -63.1061567276902 616 -0.510327 0.369699 -0.776459
12.2749884196322 -56.3867678049298 616 -0.105044 0.603814 -0.790174
12.2749884196322 -51.3472261128596 616 0.027874 0.611824 -0.790502
12.2949153488849 -91.8123641293719 617 0.038813 -0.847825 -0.528854
12.2949153488849 -48.065433488576 617 0.056739 0.558043 -0.82787
12.2949153488849 -54.7957305102369 617 -0.048253 0.589415 -0.806388
12.2949153488849 -53.1131562548217 617 -0.014281 0.557554 -0.830018
12.2949153488849 -49.7480077439912 617 0.048409 0.559105 -0.827682
12.3347692073902 -46.5332088579036 619 0.07885 0.519441 -0.850861
12.3546961366428 -44.9176283406844 620 0.095934 0.484821 -0.869336
12.4144769244008 -41.7370988960909 623 -0.008928 0.504447 -0.863396
12.4144769244008 -94.4041274128402 623 -0.036095 -0.949391 -0.312017
12.4344038536534 -43.5057560627782 624 0.000367 0.507918 -0.861405
12.4543307829061 -4.37449640172217 625 -0.067183 -0.763212 -0.642646
12.4543307829061 -40.1666959192665 625 -0.135659 0.527778 -0.838479
12.4543307829061 -38.4623054660501 625 -0.149952 0.589118 -0.794011
12.4742577121587 -36.8167276768542 626 -0.169913 0.632262 -0.755893
12.4941846414114 -35.1656958382081 627 -0.205114 0.643921 -0.737085
12.514111570664 -7.8206370392341 628 -0.039207 -0.650653 -0.758362
12.514111570664 -2.6829224570586 628 -0.058189 -0.885628 -0.460736
12.5340384999167 -6.11779173081017 629 -0.001422 -0.694884 -0.71912
12.5340384999167 -9.54838883504413 629 -0.006563 -0.567973 -0.823021
12.5539654291693 -33.6159271792521 630 -0.174148 0.645449 -0.743685
12.5938192876746 -28.5522055295153 632 0.014977 0.298336 -0.954343
12.5938192876746 -26.8287259032229 632 0.076374 0.219305 -0.972663
12.5938192876746 -25.1052462769305 632 0.070322 0.15428 -0.985521
12.5938192876746 -21.6582870243457 632 0.056904 0.198474 -0.978453
12.5938192876746 -19.9348073980532 632 0.056261 0.250026 -0.966603
12.5938192876746 -18.2113277717608 632 0.030558 0.16025 -0.986603
12.5938192876746 -11.3174092665911 632 -0.032958 -0.425532 -0.904343
12.6137462169273 -32.0497963719453 633 -0.06338 0.50298 -0.861971
12.6336731461799 -23.4557595830768 634 -0.031601 0.199082 -0.979473
12.6336731461799 -30.3714942860476 634 -0.051293 0.356854 -0.932751
12.6536000754326 -14.8344525469569 635 0.0256 -0.043357 -0.998732
12.6536000754326 -16.5661132474247 635 0.035027 0.051216 -0.998073
12.6536000754326 -13.102791846489 635 -0.005309 -0.188891 -0.981984
12.7731616509485 -0.990437811968782 641 0.280874 0.909465 -0.306566
13.2912618115174 0.788313915099718 667 0.131362 0.983626 -0.123383
13.5503118918018 2.65805516732404 680 -0.377426 0.30694 -0.873692
13.7736040185 -65.602658316485 608 -0.249719 0.363146 -0.897645
13.7736040185 -68.9187203822628 608 -0.287285 0.136309 -0.948097
13.7736040185 -72.2347824480406 608 -0.197352 -0.142057 -0.969986
13.7736040185 -73.8928134809295 608 -0.170771 -0.251005 -0.952803
13.7736040185 -75.5508445138185 608 -0.150222 -0.281986 -0.947585
13.7962579724778 -70.6928315984003 609 -0.281181 -0.040702 -0.958791
13.7962579724778 -77.3358638288566 609 -0.177844 -0.273521 -0.945282
13.7962579724778 -67.3713154831722 609 -0.32147 0.270602 -0.907431
13.8189119264556 -84.1167924403626 610 -0.10587 -0.518364 -0.848582
13.8189119264556 -85.7802775227018 610 -0.075008 -0.640941 -0.763917
13.8415658804333 -79.2560525002193 611 -0.099319 -0.279094 -0.955114
13.8415658804333 -64.2601435366402 611 -0.249981 0.458376 -0.852878
13.8642198344111 -82.7236460706726 612 0.010403 -0.349562 -0.936855
13.8642198344111 -87.7304634660411 612 0.043627 -0.597514 -0.800671
13.8642198344111 -81.0547069388831 612 -0.020004 -0.298956 -0.954057
13.8868737883889 -59.4554892357923 613 -0.232423 0.60725 -0.759755
13.8868737883889 -61.1271553923069 613 -0.244528 0.514364 -0.821971
13.9095277423667 -62.9012666084444 614 -0.267386 0.447162 -0.853552
13.9095277423667 -57.8780870647251 614 -0.138313 0.660374 -0.73809
13.9321816963445 -89.8376349635062 615 0.088402 -0.750596 -0.654821
13.9774896043001 -56.4783047656521 617 -0.068062 0.608072 -0.790959
13.9774896043001 -51.4305819994065 617 0.054616 0.609776 -0.79069
14.0001435582779 -91.9611686093222 618 0.084615 -0.840197 -0.53564
14.0001435582779 -54.8845404462341 618 -0.046502 0.56693 -0.822452
14.0001435582779 -53.1992391660937 618 0.022377 0.583259 -0.811978
14.0001435582779 -49.8286366058129 618 0.071133 0.574096 -0.815692
14.0227975122557 -48.2212371627691 619 0.102936 0.552617 -0.827054
14.0454514662335 -46.608383670275 620 0.112736 0.523809 -0.844343
14.0681054202113 -44.9900761283306 621 0.123213 0.482655 -0.8671
14.1134133281669 -43.436035299857 623 0.112258 0.436938 -0.892459
14.1360672821447 -38.4007657773044 624 -0.061547 0.557121 -0.828148
14.1360672821447 -41.8040926342869 624 -0.000782 0.434777 -0.900538
14.1587212361225 -36.7579150128337 625 -0.092567 0.602196 -0.792964
14.1587212361225 -94.7071904221912 625 0.089251 -0.956521 -0.277672
14.1587212361225 -40.1666959192665 625 -0.031002 0.530561 -0.84708
14.1587212361225 -4.37449640172217 625 -0.035483 -0.753014 -0.657048
14.1813751901003 -7.79573055184801 626 -0.039039 -0.710358 -0.702757
14.2040291440781 -35.1656958382081 627 -0.110354 0.654821 -0.747684
14.2040291440781 -6.09833929287437 627 -0.008247 -0.739128 -0.673514
14.2266830980559 -2.6829224570586 628 -0.012949 -0.875186 -0.483613
14.2493370520337 -9.54838883504413 629 0.05802 -0.587058 -0.807463
14.3172989139671 -11.3174092665911 632 -0.019469 -0.416857 -0.908764
14.3172989139671 -33.7226444083926 632 -0.065154 0.617945 -0.783517
14.3399528679449 -21.6925564658399 633 0.074158 0.230075 -0.970343
14.3626068219227 -25.1846932588195 634 0.071189 0.149107 -0.986255
14.3626068219227 -28.6425606103049 634 0.109569 0.260697 -0.959183
14.3626068219227 -32.1004279617904 634 0.003042 0.491719 -0.870749
14.3852607759005 -20.0294346483604 635 0.063014 0.23335 -0.970349
14.3852607759005 -18.2977739478926 635 0.048126 0.155598 -0.986647
14.3852607759005 -26.9560774502319 635 0.101669 0.16299 -0.981375
14.3852607759005 -30.4193988511676 635 0.081834 0.311116 -0.946842
14.4079147298782 -23.5297525155155 636 0.037144 0.178636 -0.983214
14.4079147298782 -14.8578138895505 636 0.048363 -0.043603 -0.997878
14.430568683856 -16.6182899820623 637 0.049905 0.093602 -0.994358
14.430568683856 -13.144060482226 637 0.055162 -0.190472 -0.980142
14.5664924077228 -0.993528101553708 643 0.001133 -0.999519 -0.030989
15.1554952111455 0.790677674965084 669 0.165665 -0.949759 -0.265543
15.4499966128569 2.6658729766397 682 0.188228 0.182716 -0.964979
15.4570160300918 -69.0320735407863 609 -0.209397 0.121196 -0.970291
15.4570160300918 -77.3358638288566 609 -0.135335 -0.283451 -0.949389
15.4570160300918 -75.6751057712425 609 -0.137175 -0.307244 -0.941692
15.4570160300918 -72.3535896560144 609 -0.151348 -0.177131 -0.97248
15.4570160300918 -70.6928315984003 609 -0.196423 -0.066199 -0.978282
15.4823970087948 -65.8184565346313 610 -0.296982 0.363066 -0.883167
15.4823970087948 -67.4819416169705 610 -0.290948 0.259281 -0.920936
15.4823970087948 -74.1358819463273 610 -0.170809 -0.261466 -0.949979
15.5077779874977 -84.2546888214123 611 0.044808 -0.564681 -0.824092
15.5077779874977 -79.2560525002193 611 -0.088012 -0.360822 -0.928473
15.5331589662006 -64.3653156209882 612 -0.349246 0.426522 -0.83433
15.5331589662006 -87.7304634660411 612 0.074868 -0.636946 -0.767265
15.5331589662006 -86.0615243342516 612 0.079056 -0.579528 -0.811108
15.5331589662006 -81.0547069388831 612 -0.013331 -0.345639 -0.938273
15.5585399449036 -57.7838230792776 613 -0.155343 0.690999 -0.705967
15.5585399449036 -61.1271553923069 613 -0.315297 0.511653 -0.799249
15.5585399449036 -82.8588154269972 613 0.051985 -0.315615 -0.947462
15.5839209236065 -62.9012666084444 614 -0.280043 0.480984 -0.830801
15.5839209236065 -59.5524802459648 614 -0.183272 0.611158 -0.769998
15.6346828810124 -89.9837124187315 616 0.117471 -0.738847 -0.663555
15.6600638597154 -56.4783047656521 617 -0.020237 0.605277 -0.795757
15.6854448384183 -54.8845404462341 618 0.023401 0.600475 -0.799301
15.7108258171212 -92.1099730892726 619 0.207253 -0.81499 -0.541145
15.7108258171212 -53.2853220773657 619 0.026494 0.56622 -0.823828
15.7108258171212 -51.5972937725002 619 0.0399 0.577669 -0.815295
15.7362067958242 -49.9898943294563 620 0.081259 0.566897 -0.819771
15.7615877745271 -48.3770408369622 621 0.107469 0.565872 -0.817459
15.812349731933 -46.8339081073892 623 0.146276 0.533931 -0.832779
15.8377307106359 -45.2074194912694 624 0.150717 0.450473 -0.879977
15.8377307106359 -4.36749720747941 624 0.01342 -0.809139 -0.587464
15.8631116893389 -43.5754768256993 625 0.103318 0.390968 -0.914587
15.8884926680418 -38.5238451547958 626 -0.025627 0.564214 -0.825231
15.8884926680418 -41.9380801106789 626 0.05534 0.419563 -0.906038
15.8884926680418 -36.8167276768542 626 -0.033587 0.619136 -0.784565
15.9138736467448 -7.80818379554105 627 -0.001416 -0.702963 -0.711225
15.9138736467448 -6.09833929287437 627 0.009617 -0.76116 -0.648493
15.9138736467448 -95.0102534315422 627 0.093746 -0.909568 -0.404844
15.9138736467448 -35.1656958382081 627 -0.024358 0.669422 -0.742482
15.9392546254477 -2.6829224570586 628 -0.007816 -0.859477 -0.511115
15.9646356041507 -40.4237627731498 629 -0.042203 0.568587 -0.82154
16.0153975615565 -9.57874937188052 631 -0.042191 -0.516441 -0.855283
16.0407785402595 -33.7226444083926 632 -0.016551 0.643272 -0.765459
16.0661595189624 -32.0497963719453 633 0.048475 0.579719 -0.813373
16.0661595189624 -28.5973830699101 633 0.110451 0.308786 -0.944697
16.0661595189624 -11.3353165597345 633 -0.017225 -0.424017 -0.90549
16.0915404976654 -30.3714942860476 634 0.120325 0.398604 -0.909196
16.1423024550713 -21.7953647903225 636 0.08595 0.235641 -0.968032
16.1423024550713 -18.3265893399365 636 0.067639 0.184411 -0.980519
16.1423024550713 -25.2641402407085 636 0.107548 0.175768 -0.978539
16.1423024550713 -26.9985279659015 636 0.113266 0.171668 -0.978622
16.1676834337742 -14.8811752321441 637 0.040273 -0.015678 -0.999066
16.1676834337742 -20.0925194818986 637 0.084425 0.239746 -0.967158
16.1930644124771 -13.1646948000945 638 0.03283 -0.212559 -0.976597
16.2184453911801 -23.6407419141736 639 0.084217 0.216213 -0.972707
16.2184453911801 -16.6704667166998 639 0.04681 0.126729 -0.990832
16.3707312633977 -0.996618391138634 645 0.083414 -0.992342 -0.091103
17.0560176883772 0.794223314763134 672 0.139079 0.960532 -0.240904
17.0896660842778 -65.602658316485 608 -0.267625 0.313786 -0.910997
17.0896660842778 -70.5767514151517 608 -0.136173 -0.098808 -0.985745
17.0896660842778 -72.2347824480406 608 -0.124561 -0.193917 -0.973078
17.0896660842778 -77.2088755467074 608 -0.133505 -0.273568 -0.952543
17.1177740877059 -69.0320735407863 609 -0.20059 0.057125 -0.978008
17.1177740877059 -74.0143477136285 609 -0.130224 -0.254611 -0.958235
17.1177740877059 -75.6751057712425 609 -0.133448 -0.275428 -0.952014
17.1177740877059 -78.9966218864706 609 -0.081722 -0.320034 -0.943875
17.145882091134 -67.4819416169705 610 -0.258946 0.24789 -0.93354
17.173990094562 -64.2601435366402 611 -0.304535 0.439487 -0.84505
17.2020980979901 -62.6963764891987 612 -0.293546 0.505126 -0.81159
17.2020980979901 -81.0547069388831 612 0.006114 -0.4137 -0.910393
17.2302061014182 -57.7838230792776 613 -0.155841 0.723124 -0.672908
17.2583141048463 -82.9939847833219 614 0.054184 -0.408372 -0.911206
17.2864221082744 -88.1605147575413 615 0.128903 -0.672781 -0.728525
17.2864221082744 -86.4833945515764 615 0.124213 -0.588417 -0.798959
17.2864221082744 -59.6494712561374 615 -0.128041 0.650348 -0.748768
17.2864221082744 -84.8062743456114 615 0.117369 -0.511303 -0.851348
17.2864221082744 -56.2952308442076 615 -0.051611 0.700628 -0.711658
17.3098274754066 2.6658729766397 682 -0.017875 0.70391 -0.710064
17.3145301117025 -61.4263094970001 616 -0.066231 0.596841 -0.799621
17.3426381151306 -54.7957305102369 617 -0.01721 0.642589 -0.766018
17.3426381151306 -90.1297898739567 617 0.122212 -0.787147 -0.604535
17.3988541219868 -53.2853220773657 619 0.008967 0.59349 -0.804791
17.3988541219868 -51.5972937725002 619 0.02865 0.603184 -0.797087
17.3988541219868 -49.9092654676346 619 0.050321 0.605682 -0.794114
17.4269621254148 -48.2991389998657 620 0.069753 0.59216 -0.802796
17.4550701288429 -92.4075820491733 621 0.204012 -0.808113 -0.552569
17.4550701288429 -46.6835584826464 621 0.08413 0.535729 -0.840189
17.5112861356991 -45.1349717036231 623 0.117621 0.463051 -0.878493
17.5393941391272 -4.36749720747941 624 0.026653 -0.829954 -0.557194
17.5675021425553 -43.5754768256993 625 0.128993 0.355046 -0.925907
17.5956101459834 -41.9380801106789 626 0.091404 0.366586 -0.925883
17.5956101459834 -38.5238451547958 626 0.023396 0.53063 -0.84728
17.5956101459834 -36.8167276768542 626 0.007617 0.625564 -0.780136
17.5956101459834 -35.1096101989127 626 0.014939 0.665844 -0.745941
17.6518261528396 -6.10806551184227 628 -0.034109 -0.735184 -0.677009
17.6518261528396 -2.6829224570586 628 0.02089 -0.880095 -0.474338
17.6799341562676 -40.4237627731498 629 0.027374 0.524316 -0.851083
17.7080421596957 -31.89790160241 630 0.029612 0.661769 -0.749123
17.7080421596957 -7.8455435266202 630 -0.076661 -0.644569 -0.760693
17.7361501631238 -33.6692857938223 631 0.010754 0.675618 -0.737173
17.7642581665519 -30.2756851558078 632 0.032618 0.52876 -0.848145
17.7642581665519 -28.5522055295153 632 0.057807 0.36214 -0.930329
17.79236616998 -9.60910990871691 633 -0.074346 -0.492194 -0.867305
17.8204741734081 -18.2689585558487 634 -0.118714 0.144989 -0.982286
17.8485821768362 -21.7610953488283 635 0.008343 0.218988 -0.975692
17.8485821768362 -11.3711311460212 635 -0.094337 -0.400639 -0.911366
17.8485821768362 -26.9560774502319 635 0.039289 0.156965 -0.986822
17.8766901802643 -25.2641402407085 636 0.044662 0.162947 -0.985624
17.8766901802643 -20.0609770651295 636 -0.017401 0.232917 -0.972341
17.9329061871204 -16.6443783493811 638 -0.095349 0.08751 -0.99159
17.9329061871204 -14.9045365747378 638 -0.129655 -0.01955 -0.991366
17.9329061871204 -23.6037454479543 638 0.085057 0.222074 -0.971313
17.9891221939766 -13.2059634358314 640 -0.168573 -0.165208 -0.971746
18.1296622111171 -0.996618391138634 645 0.042444 -0.996641 -0.070035
18.6860270608602 -70.3445910486545 606 -0.12191 -0.119007 -0.985381
18.7168620890135 -65.4947592074118 607 -0.273463 0.224541 -0.935307
18.7168620890135 -68.8053672237394 607 -0.175861 -0.051345 -0.983075
18.7476971171667 -67.2606893493739 608 -0.243972 0.109119 -0.963624
18.7476971171667 -72.2347824480406 608 -0.105301 -0.162788 -0.981026
18.7785321453199 -62.3890413103301 609 -0.25757 0.393484 -0.882512
18.7785321453199 -64.0497993679441 609 -0.287508 0.345833 -0.893162
18.7785321453199 -77.3358638288566 609 -0.100029 -0.338314 -0.935702
18.7785321453199 -78.9966218864706 609 -0.082915 -0.355536 -0.930978
18.8093671734732 -74.1358819463273 610 -0.068821 -0.277887 -0.958145
18.8402022016264 -57.5952951083828 611 -0.120345 0.781953 -0.61161
18.8402022016264 -75.9236282860906 611 -0.040507 -0.372486 -0.927153
18.8604703002474 0.793041434830451 671 0.251568 -0.960741 -0.117005
18.8710372297796 -59.3584982256197 612 -0.160686 0.70394 -0.691844
18.8710372297796 -81.0547069388831 612 -0.024011 -0.400928 -0.915795
18.9018722579329 -61.1271553923069 613 -0.269303 0.599543 -0.753674
18.9327072860861 -56.2036938834853 614 -0.119887 0.763091 -0.635074
18.9327072860861 -82.9939847833219 614 0.107519 -0.412119 -0.904764
18.9943773423926 -86.6240179573513 616 0.062029 -0.609514 -0.790345
18.9943773423926 -84.9441707266612 616 0.056486 -0.575489 -0.815857
19.0252123705458 -88.4472156185414 617 0.071146 -0.679417 -0.730295
19.0252123705458 -54.7957305102369 617 -0.029346 0.657937 -0.752501
19.0868824268523 -90.4219447844071 619 0.04301 -0.797287 -0.602066
19.1177174550055 -48.2991389998657 620 0.020931 0.585925 -0.810095
19.1177174550055 -53.3714049886377 620 0.006537 0.615144 -0.788388
19.1485524831587 -46.6835584826464 621 0.034992 0.549694 -0.834633
19.1485524831587 -51.7640055455939 621 0.037428 0.616917 -0.786138
19.1485524831587 -92.4075820491733 621 0.055591 -0.824617 -0.562953
19.1485524831587 -50.070523191278 621 0.050247 0.611149 -0.789919
19.1696583379563 2.6658729766397 682 0.296129 0.871201 -0.391557
19.179387511312 -45.0625239159769 622 0.079431 0.496596 -0.86434
19.2410575676184 -43.5057560627782 624 0.122146 0.362392 -0.923987
19.2410575676184 -4.36749720747941 624 0.02702 -0.847052 -0.530822
19.2718925957717 -41.8710863724829 625 0.129185 0.347789 -0.92863
19.2718925957717 -38.4623054660501 625 0.10998 0.470564 -0.875485
19.2718925957717 -36.7579150128337 625 0.095364 0.574314 -0.813062
19.2718925957717 -35.0535245596173 625 0.078568 0.635761 -0.767877
19.3335626520782 -95.0102534315422 627 0.189493 -0.861845 -0.470441
19.3643976802314 -2.6829224570586 628 0.021467 -0.85221 -0.52276
19.3952327083846 -33.5625685646819 629 0.04698 0.696535 -0.715983
19.3952327083846 -40.4237627731498 629 0.070315 0.515571 -0.853957
19.3952327083846 -6.11779173081017 629 -0.050346 -0.68759 -0.724352
19.4260677365379 -31.89790160241 630 0.008181 0.641959 -0.766695
19.4569027646911 -7.85799677031325 631 -0.115489 -0.557087 -0.822385
19.4877377928443 -28.5522055295153 632 -0.046813 0.389105 -0.920003
19.4877377928443 -30.2756851558078 632 -0.015495 0.552465 -0.833392
19.5185728209976 -18.2401431638047 633 -0.389029 0.130444 -0.911943
19.5494078491508 -9.6242901771351 634 -0.164345 -0.475573 -0.864188
19.5494078491508 -26.9136269345622 634 -0.077708 0.106664 -0.991254
19.580242877304 -11.3711311460212 635 -0.224982 -0.374313 -0.899596
