ply
format ascii 1.0
element vertex 926
property float x
property float y
property float z
element face 0
property list uchar int vertex_indices
end_header
13.9833093550415 -75.1654402777719 615.601094210899
14.3165369401764 -76.8031233490083 615.563394429367
11.3174886739621 -62.0639757078814 615.902692463154
10.9842610888272 -60.4262926366451 615.940392244686
15.0242990149535 -78.515710043721 616.459164410846
16.0674630799888 -81.8766661592378 617.316988608956
11.0527412645407 -57.2312724689359 617.884330345712
16.1082263832151 -80.311215124086 618.288219653958
16.7779431611698 -83.60261079091 618.212451088139
17.4895104449125 -85.3338985973662 619.107790566402
11.4522746202657 -55.6632490228954 619.790814667044
18.2021649312169 -87.070529578606 620.003007043748
18.9159066200828 -88.8125037346298 620.898100520175
19.5888850057224 -92.1199289258052 620.8219629516
19.6307355115104 -90.5598210654372 621.793070995683
12.9487749821578 -54.1890286650811 624.500721799911
13.3423287237941 -52.5916177577297 626.407882626295
12.6639143253465 -49.2574766926352 626.484635199462
10.6286711300037 -39.2550534973517 626.714892918965
13.3684147924387 -50.9540338629966 627.380774183696
4.54575921210082 -5.8283504028722 629.354770217079
11.0113528460238 -37.6042108421622 628.623283754534
13.0531192567363 -47.6386930861486 628.392288029519
12.0539733097781 -40.962495370287 629.481169453103
13.0764873189768 -45.9877512544559 629.365487089218
5.58837288302107 -7.42081484145256 631.188499495095
4.905609674327 -4.06530107722284 631.265744071937
13.0987681786558 -44.3314662479794 630.338809149835
23.3402163090669 -94.6641727114252 629.180140497207
21.6653396265381 3.58906519418766 684.418501626976
11.7522610132618 -35.9481241886922 631.466989366891
13.1199618357732 -42.6698380667192 631.31225421137
6.98486419491286 -8.98666258261706 633.958035553574
23.3657391046395 5.7492495334019 690.084706871106
8.73686395161846 -10.5339083885414 637.663193891138
13.5694793379961 -34.2843203025559 637.116454808237
12.533918898058 -29.1949463209814 637.233613183144
11.8435452714326 -25.802030333265 637.311718766416
10.817762861715 -18.9949248352003 638.403613712504
9.43484120334099 -12.1984065102 638.560070880884
11.509223690902 -22.3931839977004 638.325385128313
12.5464149346824 -27.4905727414506 638.208042252028
12.2115497528709 -24.0790548184942 639.221770114385
13.5966458163681 -30.8862594930621 639.065066944168
13.9429198322424 -32.5880606617041 639.025891151613
11.180874931626 -17.2479050339024 640.314218564606
10.8340573144709 -15.5434322778685 640.35345585762
11.8745101659362 -20.6568505459702 640.235743978579
10.8405737370065 -13.8096712370269 641.328561431555
9.45763170013012 -1.71569264339312 644.412549338276
33.1808604746694 -98.8824170284274 652.462887169236
12.7879164440218 -64.9057627006796 613.425842445681
13.1200568265951 -66.5381025971321 613.388265665067
13.4521972091684 -68.1704424935847 613.350688884454
11.8298937558546 -58.4187132914419 614.509484133839
12.8279457074169 -63.3237477429751 614.396569290621
16.5323912047347 -79.7509033940864 614.95272153963
14.5330256939251 -69.9248049666684 615.178920228821
14.8662532790601 -71.5624880379048 615.141220447289
15.8659360344649 -76.4755372516137 615.028121102694
16.8656187898696 -81.3885864653227 614.915021758098
16.1991636195998 -78.11322032285 614.990421321162
15.5749121178484 -73.2665255722405 616.036301727329
15.9086833042641 -74.9068802308687 615.998540445338
13.2385138129383 -61.7840429618429 616.300630701267
18.2905468853776 -84.8340637574808 616.704323311748
17.956232097681 -83.1910375114607 616.742146094198
12.6071954945364 -56.9026175751388 617.347310613405
13.6469075133364 -60.2336518311432 618.20493811375
19.3844218008738 -86.6525443279703 618.531078645093
19.7198237911319 -88.3009137487742 618.493132861724
13.0117839859689 -55.3335253326957 619.252048529103
20.816960314313 -90.1354238436152 620.319519192313
21.1534495071327 -91.7891364392029 620.281450408025
19.2292113317336 1.46863499655431 671.60648088642
14.8898302254128 -53.8909283982715 624.89110871497
14.2411166660251 -48.9240122150264 625.939756641804
15.2878955014756 -52.2897771071256 626.796584636179
14.6353767331222 -47.3041598121372 627.845663066228
14.2950823313368 -45.6317461048061 627.88416235373
12.9339047241951 -38.9420912754819 628.03815950374
6.48116028962696 -5.45063650889227 629.743447834189
15.6837863724151 -50.6779394664121 628.702306559225
14.003317582055 -40.6403504133358 629.867682357752
13.320554373361 -37.284836649106 629.944926934593
6.84552228627973 -3.68384679944839 631.652736783873
15.0517272213479 -44.0141300676107 630.724325850748
14.7098020157201 -42.3337015981039 630.763009639629
7.88305989995644 -7.00419470588527 632.510610286055
25.6914378592062 -94.5253976646158 630.495855240403
14.0679580415983 -35.6218036262482 632.786135939419
9.28822111797078 -8.57378242722969 635.277403735165
13.4485508585014 -25.462687475442 636.757234977774
10.6870563519999 -11.8910235245766 637.06965731086
13.1167568458244 -22.0533067416761 637.770028136854
12.4252960166374 -18.6550475791759 637.848256721044
10.69664394367 -10.1593996729255 638.04382818152
15.5368697479789 -33.9472138104267 637.496228092189
14.86043252327 -28.8440466701945 638.548012542446
12.0902403962755 -15.2296373210586 638.861418882881
15.5529805550185 -32.2476490074784 638.469660957337
14.8743689251864 -27.1337955176787 639.521691409432
14.1807336908762 -23.724850005611 639.600165995459
25.4848458074162 4.27458899188343 689.439761610646
13.8451344692336 -20.2967681601017 640.613389657754
13.1504120323617 -16.8824794732501 640.6919872447
12.4556895954899 -13.4681907863986 640.770584831646
16.2905994002014 -30.5365274115664 641.31197697043
11.7844430593318 -1.27556140865627 645.722804292557
13.5817787723969 -64.4743211438103 611.027884802538
14.2886163687924 -66.1564515808095 611.922584883435
16.9413906191325 -79.1937980532945 611.622462642203
14.9965411677495 -67.8439251925927 612.817161963414
15.6608219328961 -71.1086049854977 612.742008402187
15.9929623154694 -72.7409448819502 612.704431621574
16.657243080616 -76.0056246748553 612.629278060347
17.6536642283359 -80.9026443642127 612.516547718507
16.9893834631893 -77.6379645713077 612.591701279734
16.3251026980427 -74.3732847784028 612.66685484096
14.3748172338518 -62.9966960437819 613.862169166764
15.7055531692683 -69.5367419791596 613.711616042474
18.748245469293 -82.6986834391644 614.342048649892
13.7498316922692 -58.1334373706196 614.907545372871
19.4632370849007 -84.4208876870423 615.235826223901
15.1645940876218 -61.503041419402 616.696822533747
15.2038893111858 -59.9044625391448 617.667045178626
21.279333156835 -87.9711900585745 617.954366723783
14.9066953419301 -56.6521710632998 618.675336607793
21.3262387983304 -86.410013401804 618.923728362233
23.101952444139 -91.5535514788097 620.672169218154
22.7649196500384 -89.89716729583 620.710299502901
15.6872309739263 -55.1130994532576 621.511035482583
40.5688333376621 -100.049731490894 665.87240906391
17.2073762105125 -53.6255203512547 626.212395088661
17.2385174148644 -51.9868676601189 627.183540240429
16.9277334135885 -48.6677864994764 628.193369181078
14.8827053951911 -38.6172747311386 628.424733908848
22.3312605507252 2.03199771820107 674.762510123493
8.42161650286053 -5.07185381850971 630.130379045666
16.9561566115364 -47.0157758713812 629.164821835143
16.6147750071894 -45.3380189892664 629.203444123564
18.0092682238062 -50.3997074770224 630.020346123486
15.9577169900392 -40.3171366599819 630.252448856767
15.6398661721127 -36.9633248632447 631.263077303386
16.6672725928386 -42.0126250339406 631.146841435368
17.0097413997473 -43.6957250908393 631.108096146028
9.14561760165284 -3.25493711970961 632.97247396822
9.83164241803175 -6.62648040829074 632.894860388622
16.3937653413495 -35.2933454709992 634.10178970068
10.8881715693323 -8.23550836580921 634.724666352156
28.8217337545136 -94.5802432522032 633.67041687882
15.0535564455702 -25.1233446176189 636.202751189131
14.3631828189448 -21.7304286299025 636.280856772403
11.946875125756 -9.85522267289532 636.554226313853
15.0700204153403 -23.4125590669018 637.1755568533
12.6499075131859 -11.5186519981512 637.449356897965
14.7391231666745 -19.9946291727589 638.187661310942
14.3928491508002 -18.2928280041169 638.226837103496
16.4869572158161 -26.7928494652518 638.964588012339
18.2391400752043 -33.6124424568798 639.741022710062
14.0708054539733 -13.1267103357704 640.212608231736
14.4181666724092 -14.8338546791961 640.173309438264
14.7655278908451 -16.5409990226219 640.134010644791
17.1970564198965 -28.4910094266025 639.858919090481
18.2561476462552 -31.9043284935546 640.713766873771
18.6358932029505 -30.1872301481542 642.620140909095
14.121364689948 -0.833292581114236 647.029566435571
18.1005462153759 -78.7918431342393 610.159020269878
15.1210675952707 -64.148872639221 610.496104287131
18.1516102285674 -77.2381468414432 611.127324204133
16.8252231033974 -70.7194736052007 611.27738532475
18.8148037911525 -80.4974834595645 611.052293643825
17.4884166659824 -73.9788102233219 611.202354764441
17.820013447275 -75.6084785323826 611.164839484287
16.2087447437574 -65.8850679951482 612.321211822987
16.5408851263307 -67.5174078916007 612.283635042374
15.5444639786108 -62.6203882022431 612.396365384214
17.5373062740506 -72.4144275809582 612.170904700534
17.2524246957031 -69.2096902799663 613.177215918617
16.3423671372225 -61.1278019706513 615.228337642286
20.681392560627 -82.4524125328182 614.737440976401
15.674824764391 -57.8470926533949 615.303860206269
22.0680849207622 -87.4628064619268 615.554638282233
21.7837469436954 -84.2607407483267 616.560887999857
16.8412550841857 -56.3610171658779 619.068220130383
17.5131462672637 -59.6630991822697 618.992205562727
23.560166914965 -89.3818373297946 618.308074453819
22.888275731887 -86.0797553134029 618.384089021475
24.2825785099535 -91.1275514659982 619.200425320877
16.8798162679185 -54.7458743630681 620.037938575202
18.4131429450537 -53.2582948574505 624.734870666736
18.4473553185402 -51.6217793555054 625.705081115229
9.65073037810615 -4.78050116446687 628.648451501972
19.2571831981252 -48.3831425389004 629.509785340624
17.8894823756138 -41.6614286608734 629.664520496145
18.5733327868695 -45.0222855998868 629.587152918385
17.5747027268219 -38.3097540533267 630.674214239488
17.9171715337306 -39.9928541102254 630.635468950149
19.9719843751825 -50.0914544516174 630.402997214112
18.972810713854 -43.3762513176653 631.490120035675
11.426537733686 -6.28927514327285 632.343869411247
10.7405129173071 -2.91773185469172 632.421482990844
19.6588355302329 -46.7477946062464 631.412506456077
17.9692882422791 -36.639675484578 632.577734860912
12.4881220206937 -7.89723430438875 634.171928969147
18.361699352613 -34.9589105662618 634.481501484173
13.5518807128249 -9.51587981507224 635.999742525211
30.8112213784592 -94.3387795079811 634.047102943421
16.6585620326391 -24.7840017597958 635.648267400489
15.9681884060137 -21.3910857720795 635.72637298376
13.8970675261376 -11.2123378089305 635.960689733575
16.6775535702628 -23.0726818108774 636.620199861841
26.1616110428491 2.70309518614933 679.780781495957
19.1193760164451 -33.2686268676691 637.318024776231
16.7122750378255 -19.6340123886893 638.564433787301
16.3654574206704 -17.9295396326554 638.603671080314
16.3806437493285 -16.1995185719936 639.576034044881
15.6859213124567 -12.7852298851421 639.654631631827
16.394742875425 -14.4641543365481 640.548520010367
18.8300766134421 -26.432865852272 640.272997952842
19.1779814331589 -28.1426817830897 640.23363765891
19.8737910725923 -31.562313644725 640.154917071045
20.2585917649949 -29.8441465029221 642.059544700736
15.8997645165241 -63.7206374715595 608.103385860889
16.111285057693 -0.438478751921963 647.399156591631
16.3293032381329 -62.1964274129629 610.00177755142
17.9845691381914 -70.3314110213064 609.814508652946
18.3156223182031 -71.9584077429752 609.777054873251
18.6466754982148 -73.5854044646439 609.739601093556
19.3618298380025 -75.282495629592 610.632185766064
17.3722491502474 -65.5044857752282 610.857277446988
19.693426619295 -76.9121639386525 610.59467048591
18.0354427128325 -68.7638223933494 610.78224688668
20.7423521454982 -80.2496097622288 611.449493876427
20.4102117629249 -78.6172698657764 611.48707065704
18.0852290849118 -67.1908905906088 611.750108121333
17.1358763028673 -60.707581161551 612.831007200123
22.2333192227691 -82.1242920372224 614.201294446911
22.9539095753649 -83.8480990760894 615.093264114826
18.3178529068847 -59.2460839551479 616.591259308378
17.9829945179073 -57.6003861217358 616.629143591288
24.7862582569827 -87.4005382331977 617.80644239689
25.8471430113639 -90.7967589793959 618.659912777303
24.8376754329046 -85.8356211926327 618.774119130165
25.5106538185441 -89.1430463838082 618.69798156159
19.1984494555799 -54.485809490835 621.359101947974
19.5360258509613 -56.1448652612066 621.320910162768
19.9903452857324 -52.9248303798417 624.189992109078
20.0270852270725 -51.2877804796953 625.159329354754
11.596241727047 -4.40064967768172 629.033636307816
21.1889485836999 -49.7274345397919 628.921856980002
20.8470233780721 -48.0470060702851 628.960540768882
20.1631729668164 -44.6861491312715 629.037908346643
19.8520080884397 -41.3392833003074 630.046605886251
13.0214330493402 -5.95206987825496 631.792878433871
21.2537308458871 -46.4105893412285 630.861515478702
20.5677060295082 -43.0390460526474 630.939129058299
19.5386688049399 -37.9817311197758 631.055549427696
13.7262589647924 -7.59840088275691 632.686631615106
19.5667111257869 -36.3019358213589 632.02587068072
13.0557736398021 -2.48561578574515 633.73598095829
16.8408693580639 -21.0878787955633 633.3077532604
20.6259650763256 -39.6901418053813 632.87952556251
19.5936662440724 -34.6167973481582 632.996314934662
32.026689792944 -93.9026263329596 632.563195707168
14.7945291913501 -9.2133060096459 634.512760265995
17.5516748876051 -22.7635972613761 634.200829936583
16.5177452515094 -17.6822380419773 634.317803810112
16.1731020394776 -15.988451635511 634.356795101289
15.5020731132063 -10.8729949511074 635.406205944933
17.2280071797697 -19.3552849203982 635.210941986754
16.5564346522178 -14.2371566486027 636.260414330857
18.6308171397787 -24.4319341361031 636.025728578287
20.3594692127462 -32.9275820423536 635.830157117811
20.752586648541 -31.2243756284995 637.732669339113
16.9375928598348 -12.4751753121268 638.164279562262
20.0799269184274 -26.1009041819201 638.782264684134
20.7956248594958 -27.8006669342602 639.674787856183
21.1435296792125 -29.5104828650778 639.635427562251
17.4339982036906 -63.3962577633728 607.573351751116
17.4863121436237 -61.8227915624307 608.540339782953
17.9192751970974 -60.2894979452557 610.437169569227
19.2974326609197 -65.2320333931643 611.254157980907
21.6224153389329 -76.6584126683318 610.991120516613
21.2902749563596 -75.0260727718794 611.028697297227
18.4658996632848 0.00753086302913886 648.699806314928
22.6749556355515 -80.0006672684907 611.844947703395
22.3422716516974 -78.3656557846462 611.882585984468
21.344219700135 -73.460621333113 611.995500827685
21.0115357162809 -71.8256098492686 612.033139108758
20.6788517324268 -70.1905983654242 612.070777389831
20.3461677485727 -68.5555868815798 612.108415670903
20.0134837647186 -66.9205753977354 612.146053951976
23.3964427521584 -81.7159251469807 612.736228669871
24.119017071327 -83.4365262002547 613.627386635429
32.874835813258 3.79871886088793 692.258499843788
19.4936419899125 -58.8740504919904 615.123586119276
19.9206254292975 -57.3113694135046 617.021092410602
26.3482951905395 -87.0702801447967 617.266803056132
26.0123495990005 -85.4192391366009 617.30481033996
27.0752183199545 -88.8122538972059 618.157469018016
27.8032286519311 -90.5595708243988 619.048011978981
20.725539975819 -55.7755029818264 619.848747958663
20.7680690926975 -54.1539482078301 620.816842998767
21.1885293167128 -52.5592080806415 622.715087295604
21.2283404271872 -50.9242953696856 623.683489838004
21.0004125401748 -44.3124128933924 626.627996258676
13.1835543391402 -4.06504760726773 628.485264938891
22.4008576565102 -49.3644834243689 627.442463151526
22.0594760521631 -47.686726542254 627.481085439947
16.2822098567178 -17.4631571505481 629.107604396984
22.0949383523912 -46.030441132163 628.449979986021
16.3073437326105 -15.7561115800109 630.077667451784
21.7868446431489 -42.6857124903896 629.457742822353
21.4443758362403 -41.0026124334908 629.496488111692
16.3313904059416 -14.0437228346899 631.047853507502
18.0721299240624 -20.7682070729975 631.823821112849
14.98012583883 -5.57221798785526 632.173635725171
17.7285739145921 -19.079763841315 631.862689403108
16.0321225341679 -8.91180100062217 633.027524412412
16.376222144919 -10.6029158196966 632.988594621695
22.2259155276872 -39.3518677439609 632.326788179502
21.8818159169361 -37.6607529248865 632.365717970219
15.6880229234168 -7.22068618154779 633.06645420313
17.0862936346289 -12.2620703629567 633.881167097816
15.0184343624377 -2.09935192415903 634.115114844875
21.9396940866528 -34.2840640072988 634.304983073389
22.2848808999654 -35.9805220011569 634.265930281753
19.523386393464 -22.4088580502916 634.57835261484
34.0212325525968 -93.6600937923349 632.938135366136
20.2383502947012 -24.0920568800788 635.470371586827
21.9670023676687 -32.5877047863292 635.274800126352
21.993223446123 -30.8860023905758 636.244740180234
22.3897652137826 -29.1737124181435 638.145690497279
22.0653634661162 -25.7488361546129 639.155298347389
22.4132682858329 -27.4586520854306 639.115938053457
51.0952101504876 -100.371544159761 677.133577879237
19.7926883691175 -61.5931833515257 609.86700057085
20.12428515041 -63.2228516605863 609.829485290696
19.8453554717809 -60.0084964028148 610.833361401707
23.223775210424 -74.7685811177641 611.423462422756
21.6135659950977 -65.011508337223 612.577953158516
22.6132487505025 -69.924557550932 612.464853813921
22.9464763356374 -71.5622406221683 612.427154032389
23.2797039207723 -73.1999236934046 612.389454250857
24.2793866761771 -78.1129729071136 612.276354906261
23.9461590910422 -76.4752898358772 612.314054687793
24.9458418464469 -81.3883390495862 612.200955343198
25.0034013606376 -79.8276963874024 613.166762669921
22.6670030557275 -68.3452137770049 613.431091643859
22.3332318693118 -66.7048591183766 613.46885292585
20.6643759372331 -58.5030858252355 613.657659335806
26.0628180353564 -83.1907892884951 614.019224650212
21.1927912102845 0.506339458342985 650.92889599701
27.5743865325572 -85.0889810481998 616.765170999203
21.8633114763948 -57.0212839088707 617.411294824283
28.696255132994 -86.9154755736358 618.582886802084
29.0332879270946 -88.5718597566155 618.544756517337
29.3703207211952 -90.2282439395952 618.50662623259
22.6752651251966 -55.4811426951967 620.236392264353
23.1018676874807 -53.8906769463893 622.132767154639
23.1447499670897 -52.2579014246241 623.100234993762
23.186545044137 -50.6197827280751 624.067825833804
17.1605381816627 -15.4737437116578 627.666537551019
23.9881702686034 -49.028881353955 626.894091782601
23.6467886642563 -47.35112447184 626.932714071022
22.9640254555623 -43.9956107076104 627.009958647863
17.5019197860097 -17.1515005937726 627.627915262598
14.7708669512334 -3.72944553685375 627.936893569965
18.2139752422926 -18.8074491514395 628.519676036362
23.6847785323381 -45.6943046635477 627.900735414279
17.5572426735024 -13.7363406562957 629.566294966565
23.3792123909494 -42.349041623573 628.907625047794
19.2983353543536 -20.4496041468343 630.341635370932
16.2112236806485 -5.27765934821921 630.690896479121
23.4144842526271 -40.6788638783211 629.875953893347
17.951772760219 -11.988251251366 631.466298383947
17.6082167507487 -10.2998080196835 631.505166674205
17.2879733747782 -6.88241212012733 632.513716820121
17.6320729855293 -8.57352693920171 632.474787029404
23.1691334102585 -33.9424851873965 632.820669726696
16.6209123816528 -1.76054346453727 633.56150425905
23.8584198343223 -37.330058000329 632.742687144343
24.2030630463541 -39.0238444067953 632.703695853166
35.2316458313743 -93.2250094137161 631.455974535517
23.1995128604088 -32.2482631556175 633.789552076383
21.1283919805327 -22.0695151924685 634.023868826197
23.8898864870342 -35.6411791433339 633.711446493111
23.2288051079976 -30.5486979490548 634.758557426988
22.2181881054019 -23.7383860617822 635.845213156175
23.6309456126454 -28.8380107676117 636.657699837941
23.3101586353943 -25.4179432806636 637.666311484316
24.03091171217 -27.1166372366011 638.557088250731
51.248578059804 -99.6112945609203 672.82409858087
21.3896994303621 -59.6819791018229 610.299834480666
22.0539801955087 -62.9466588947279 610.22468091944
24.7706467368588 -74.4415294185709 610.889062298899
22.1091748660259 -61.3614375478156 611.19016854748
23.1629650893861 -64.6839222398285 612.042679831843
23.4961926745211 -66.3216053110648 612.004980050311
25.4955581853306 -76.1477037384827 611.77878136112
22.2163025993752 -58.1749653296396 613.121512806316
24.2189297178697 -68.017093281409 612.894945114369
25.2202432771168 -72.9381572572936 612.781661268395
24.8864720907011 -71.2978025986654 612.819422550386
24.5527009042854 -69.6574479400373 612.857183832378
26.6143279022625 -77.9330556566376 613.595673265256
27.6768157461158 -81.2982857469209 614.447200542271
28.406076004834 -83.025832765968 615.336427600817
27.7352720243177 -79.7290939243601 615.412319167555
30.1442602407308 -89.7118459843863 616.111509806961
23.4253484099516 -56.6910258204697 616.871655483525
29.5313689371357 -84.8432437328258 617.152581499442
29.8678581299554 -86.4969563284135 617.114512715155
30.2043473227752 -88.1506689240012 617.076443930867
23.9348481644062 1.0083544428646 653.152746462193
25.0152060582487 -55.2221458121371 621.550447013673
15.2532525385402 -3.53300449396873 624.598332110537
25.4457765536786 -53.6252680921433 623.445198499243
25.4900991985796 -51.986614997393 624.411916136469
25.1498047967941 -50.3142012900619 624.450415423971
25.1924966378527 -48.6675334331359 625.417317562575
25.2341012763496 -47.015522401426 626.384342702097
19.4618902166116 -16.7908842133175 628.0091152535
17.0684137772168 -5.02788492677018 628.279901775661
24.9326935066571 -43.6777397254257 627.390174631417
24.97158013875 -42.0123707567564 628.357507273235
25.6565177525673 -45.3785708705537 628.280016694556
47.8255022401422 -97.9696021740017 660.173065031381
19.8641934454395 -15.0550839489447 629.907064762953
25.3896478047213 -40.3540465267488 630.253673269369
18.518527615316 -6.58518189309937 631.031039074529
19.8927516531971 -13.3389548198293 630.875565913497
20.9234196816078 -18.4042845148766 630.758961042723
17.4878595869052 -1.51985219805197 631.147643945303
19.5761230476419 -9.92636769685562 631.883119855677
36.8341238505894 -92.8862009540943 630.902363949691
19.6019632489955 -8.1968806307806 632.851928508518
20.2912496730592 -11.5844534437131 632.773945926165
22.0144657332186 -20.0533854760445 632.578989470282
25.494892074103 -35.3018362855108 633.156962704469
25.8400788874157 -36.998294279369 633.117909912833
26.1852657007284 -38.6947522732271 633.078857121197
25.1497052607903 -33.6053782916527 633.196015496104
24.8045184474776 -31.9089202977944 633.23506828774
23.4819748123037 -21.6961732389146 635.328158754453
23.828248828178 -23.3979744075565 635.288982961899
25.2133448916752 -30.2051790821245 635.132279791682
25.6199969307495 -28.490751516887 637.02973729746
24.9252744938777 -25.0764628300354 637.108334884406
25.648555138507 -26.7746223877715 637.998238448005
23.87111149445 -65.8302224731262 608.689147293941
23.9887303763148 -62.6693973324668 610.61813014255
24.3214143601689 -64.3044088163112 610.580491861478
25.3788193539444 -67.6317022849066 611.432006942105
25.7120469390793 -69.2693853561429 611.394307160573
26.3785021093492 -72.5447514986155 611.31890759751
26.7117296944841 -74.1824345698519 611.281207815978
23.7126814282698 -59.443286928725 611.620505849765
27.4397123120904 -75.8907460789543 612.169992174923
26.4383987528432 -70.9696821030696 612.283276020896
24.4357716343488 -61.1275541513002 612.509843712843
28.1687821322583 -77.6044007628404 613.058653532949
24.1570046798998 -57.888085810599 613.512526922354
29.6301833802789 -81.0477396549644 614.835607246246
29.6906236250538 -79.4753418468103 615.799914169173
24.9873853435084 -56.3607677320686 616.332016142768
30.7594442457263 -82.8587386506356 616.650137740156
31.4934064774215 -84.596437621049 617.538245594048
32.1674720656226 -87.9092059870083 617.461985024555
32.5045048597232 -89.565590169988 617.423854739808
32.2284559116782 -86.3394797662461 618.426230447023
25.590405108548 1.35838526471359 652.580798617215
26.5898808310737 -54.8892157327296 621.006441658831
17.2038190231883 -3.15208421078101 624.981770510746
27.4126510767509 -53.3244954307126 623.826791885675
26.3917678713946 -48.3072543087195 623.942289748182
47.1203539982659 -97.0269551102212 654.031931126032
27.4589576882247 -51.6826363503692 624.792697820543
27.1181196851584 -50.0075510556462 624.831258608505
26.436443679026 -46.6573804662003 624.908380184428
26.8644588922319 -45.0220317263171 626.802246270795
18.6582539571637 -4.69174845815489 627.730657203919
26.9064166934592 -43.3587999468385 627.768644209337
26.947287292125 -41.6902249925759 628.735165148798
22.1772865556454 -16.378101619975 630.245965152789
26.9870706882291 -40.0163068635296 629.701809089177
20.4878742775012 -6.20586399728639 631.408242054103
19.8258684200831 -1.08292654529373 632.454283087398
27.4080190847844 -38.3462274875518 631.596474681515
21.5490844802425 -9.5518585776251 632.259326631516
22.5830141163381 -14.633217797024 632.142352757986
23.2723005404019 -18.0207906099565 632.064370175633
27.0633758727525 -36.6524410810855 631.635465972691
21.5769086481689 -7.81916552595691 633.227323581999
27.0998976611719 -34.9624934276877 632.602478915826
26.7547108478592 -33.2660354338296 632.641531707462
38.8362493138032 -92.6420652188658 631.274684000209
26.789601832436 -31.5680730182562 633.608729151975
22.6408368573141 -11.1785180432552 634.078100657115
25.0609497594685 -23.0724251120057 633.80430061245
24.3694889302815 -19.6741659495055 633.88252919664
22.9865672719076 -12.8776476245052 634.03898636502
26.8234056144513 -29.8647674278988 634.576049597406
25.4688517252845 -21.3382276386223 635.70044221581
26.1624869595947 -24.7471731506901 635.621967629783
25.0189068925373 -65.4501750550222 607.230513635302
26.887751570797 -26.442126722833 636.511059491024
27.6141033845608 -28.1424234697596 637.400028351346
25.4748084952443 -63.9259641891964 609.120050296746
26.4712296429643 -68.8229838785539 609.007319954906
25.142668112671 -62.293624292744 609.157627077359
24.8702339350414 -59.0723226655847 610.159006580839
26.9282184482329 -67.304116187512 610.896733615432
27.5946736185028 -70.5794823299847 610.821334052368
27.9279012036377 -72.217165401221 610.783634270836
25.5953081076932 -60.7533839025668 611.047532741559
28.9916389742326 -75.5626255833584 611.633845645432
28.6578677878168 -73.9222709247302 611.671606927423
25.3201559236595 -57.5187243384479 612.049219747335
30.4559209528373 -78.9942093295121 613.409298954932
30.1210625638599 -77.3485114961001 613.447183237842
26.5494222770651 -56.0305096436676 615.79237680201
31.5886061501495 -80.7961247666051 615.222267544587
31.9245517416885 -82.447165774801 615.184260260759
33.4604991534146 -84.3485627128697 617.922163283021
33.798075548796 -86.0076184832412 617.883971497815
34.1356519441773 -87.6666742536127 617.845779712609
34.8748597501301 -89.4171967627843 618.732706861388
28.1645556038986 -54.5562856533221 620.46243630399
27.9740253477805 -47.9727210347081 623.395664784891
29.3845807355305 -53.0226539728793 624.206638866473
28.0212287232656 -46.3223127939876 624.36088201832
19.5328047875132 -2.72263932561177 626.29177946319
29.4328713135772 -51.3775889069426 625.171733098984
29.0914897092301 -49.6998320248278 625.210355387405
28.067344896189 -44.6665613784832 625.326222252667
28.1123738665508 -43.0054667881951 626.291685487933
29.0947089204609 1.96973899736972 656.655416580252
20.6220018823608 -4.3108277713526 628.109668089586
28.5421826077792 -41.3530197275581 628.184174171423
28.5844935717369 -39.6785672003104 629.149944908985
28.281617722382 -36.3076566792046 630.154768438183
29.0104971039995 -38.00741902793 631.042864095689
24.5301353475851 -15.9881957438685 631.549750880984
22.4622760753938 -5.82547730507079 631.783698628043
28.7049032482406 -34.6231505698647 632.047995127184
26.2885955550518 -22.7479446128574 632.321364668634
23.902639597643 -9.13951120598072 633.561857957751
28.7428654019519 -32.9273253434819 633.01425786842
23.9319041308615 -7.40094058132743 634.529104706336
28.7797403531017 -31.2261569423152 633.980643610575
26.3558222419816 -19.3135487618213 634.254874158456
26.0095482261073 -17.6117475931793 634.29404995101
25.3170001943587 -14.2081452558954 634.372401536119
28.4334663372274 -29.5243557736732 634.01981940313
41.6477799364288 -92.5851373396184 633.495372512146
27.0814400159142 -20.9972815861953 635.143338818717
25.3473519301387 -12.4749178060259 635.339525283785
27.7750752502245 -24.4062270982631 635.06486423269
25.3766164633571 -10.7363471813726 636.30677203237
28.5028674292804 -26.1006462722047 635.953082891114
26.6870120712522 -61.967106991752 608.624100156319
27.3512928363988 -65.231786784657 608.548946595093
28.0155736015454 -68.496466577562 608.473793033866
29.2317468108979 -27.80040862093 636.84117854862
23.6652696954303 -0.443353727847025 637.470943251534
27.4151574130385 -63.6503054179247 609.511691613764
28.0805253807468 -66.9203283856135 609.436415051619
26.8114796168467 -58.7881147339359 610.549959196417
27.1447072019817 -60.4257978051723 610.512259414886
29.1440727127912 -70.2518962325901 610.286060725694
31.2111080092061 -78.515214405019 611.022176551959
29.8760232635432 -71.9537957705061 611.173221679924
26.8720825858016 -57.1906038428521 611.513073217844
31.2776905922499 -76.9470909752462 611.984614068334
30.9433758045533 -75.3040647292261 612.022436850785
32.347761139664 -80.3107178709256 612.833521736899
31.0083275837546 -73.7279265372775 612.985058868538
33.0846041019433 -82.0366616953688 613.720129186995
28.1114592106217 -55.7002515552666 615.252737461253
34.2250624413668 -83.8508662730188 615.53104386872
34.9646234100501 -85.5901680344214 616.41734381652
35.705271581295 -87.3348129706078 617.303520763401
36.4470069551015 -89.0848010815781 618.189574709364
30.5247170797799 -54.2930135846521 621.769505430776
29.9468517705714 -47.6623304164978 623.77482306425
31.0201839256705 -51.0419868365286 624.623361730058
31.3615655300175 -52.7197437186435 624.584739441638
29.9960391126293 -46.0087161901841 624.739228595321
30.6788023213234 -49.3642299544138 624.661984018479
30.0441392521256 -44.3497587890866 625.703757127311
29.7022140464977 -42.6693303195798 625.742440916192
29.406214575243 -39.3192580994079 626.745899238899
28.7212769614257 -35.9530579856106 626.823389817578
29.4510531070544 -37.644271173959 627.710796773645
30.1370779234333 -41.0158144625402 627.633183194047
22.2477925350758 -2.24306664385713 628.525739359418
22.5908049432653 -3.92883828814769 628.486932569619
29.5374685629925 -34.2782677987098 629.640960845892
24.064754094609 -5.48666884544903 631.230088042218
30.3503985568744 -32.5874480874575 632.458900876961
26.8930944109395 -15.5961522749567 632.850043797912
28.2760160693134 -22.392670599957 632.693586629532
27.5845552401264 -18.9944114374568 632.771815213722
25.5419648536376 -7.06052892710176 633.97287451206
25.8882388695119 -8.76233009574371 633.933698719506
42.8556656473527 -92.1505873592009 632.014084884343
28.312156980632 -20.6749382762376 633.659468171626
27.8333671040475 -61.592937146633 607.166216699579
28.0003930722338 -17.2473900217006 634.664710007652
27.89921564726 -60.0082497943075 608.128150015892
27.6864547587123 -13.8091554175959 635.670197845515
27.3390935402764 -12.1020110741701 635.709496638988
26.9917323218405 -10.3948667307444 635.748795432461
29.7706220693278 -24.0520214781506 635.434405084678
27.963976987911 -58.4182192671982 609.090206333125
54.8815931738427 -97.3875273303347 663.056005077281
30.5014854175182 -25.7485778412829 636.321689039826
31.1972950569517 -29.1682097029182 636.242968451962
31.5451998766684 -30.8780256337359 636.20360815803
30.3602442219448 -68.2866270639593 609.788487180552
29.36056146654 -63.3735778502503 609.901586525148
29.6937890516749 -65.0112609214866 609.863886743616
34.8579500593576 2.90323059421519 666.291942267839
31.2334359682702 -27.4504773791989 637.208849994056
30.4266363664381 -66.7046112990257 610.750358996407
32.0954922985167 -74.9063845921667 610.561552586451
31.4279499256852 -71.6256752749103 610.637075150434
31.0941787392695 -69.985320616282 610.674836432425
28.4240092479436 -56.8624833472563 610.976926688354
33.8350891853352 -81.5475148195094 611.334125988676
33.1664596099421 -78.2614623274692 611.409771553577
34.5744597154681 -83.2729242457513 612.219860235955
33.9047429375134 -79.9815285789272 612.295628801775
33.2350261595587 -76.6901329121032 612.371397367594
32.565309381604 -73.3987372452791 612.447165933414
35.3149174481626 -85.0036768467769 613.105471482316
30.0693106648411 -55.4069596614249 615.637700658033
36.4626053284167 -86.8274989775919 614.91439375657
27.9103498955637 0.253293659187371 643.404630237379
37.2057810675153 -88.5716095155771 615.799697500635
32.8949888270759 -54.0276039231769 623.073081746295
32.2661149334166 -49.0286278839998 624.113612649554
33.3436054602117 -52.4157646680051 624.961093611169
31.9759046377004 -45.6940507899781 625.115828766689
31.2920542264447 -42.3331938509645 625.19319634445
33.3958639714041 -50.764287630882 625.924564438964
32.7109263575868 -47.3980875170847 626.002055017643
30.3136447092262 -35.6163871187941 626.273272043019
32.4179980554665 -44.0501524861034 627.004578637074
31.7319732390876 -40.6786091975223 627.082192216672
31.3889608308981 -38.9928375532317 627.120999006471
31.4357833292824 -37.3146446421896 628.085084838859
24.5646631398771 -3.54578000854019 628.862450644019
30.7486713103419 -33.9377581788246 628.162821419375
25.6672321138241 -5.14786038582726 630.676477456392
24.9779456897604 -1.76028757289471 630.754460038745
31.1815235063342 -32.2484428892877 630.052616797567
29.4986067291894 -22.0692588972113 631.21239709135
44.0584962225691 -91.7171061751859 630.534543662175
29.9222177034081 -20.334526622012 633.10323797735
27.5320756599329 -6.67960743307031 634.343030368641
31.000251831484 -23.7243349934092 633.950657438505
27.878893277088 -8.38408018910421 634.303793075627
29.9597989800187 -18.6109167253075 634.068369317545
29.8435324981999 -59.7261790518493 608.518167928195
30.1762164820541 -61.3611905356938 608.480529647123
29.6489318356317 -15.1748193103934 635.072922452133
32.427821583119 -28.8319740577997 634.75853210435
31.7330991462472 -25.4176853709482 634.837129691296
32.775182801555 -30.5391184012255 634.719233310877
31.5764157310983 -66.3213578953284 609.290913635411
30.9099605608284 -63.0459917528557 609.366313198474
29.3358902861215 -11.7280355459117 636.077721588557
28.9879854664048 -10.018219615094 636.117081882489
30.3796047452717 -16.8574833383648 635.959640706761
56.1698174548024 -96.9332050200834 661.546836459802
31.6447918421644 -64.7361361448016 610.251973748908
32.3123342149959 -68.016845462058 610.176451184925
33.6474189606588 -74.5782640965709 610.025406056961
33.3136477742431 -72.9379094379427 610.063167338952
32.8536069624609 -27.107928132168 636.649126988513
30.0660195944807 -13.4080279864912 636.964501343644
33.0493399014553 -69.7176762035714 611.061865733522
30.7091363875795 -58.2164924814306 611.326625210674
33.3836546891518 -71.3607024495915 611.024042951071
35.7238582030276 -82.8618861717324 610.759283473918
35.389543415331 -81.2188599257123 610.797106256369
34.7920079574082 -76.3609436201048 611.83350443247
35.4617247353628 -79.6523392869288 611.757735866651
35.1268663463855 -78.0066414535168 611.79562014956
36.8744268138657 -84.6739531565772 612.566705344376
38.4358403426787 -86.5838984477938 615.296442038991
32.3692500488684 -56.7689831541603 615.982787164433
39.5913013650441 -88.4200097191657 617.103310405315
33.2272435203166 -55.2218943602549 618.792105453342
31.8129403672522 0.906226431666468 648.399460331097
33.8534275455098 -48.6930258135858 623.565241280629
34.5361907542039 -52.0485395778156 623.487996703787
34.8775723585509 -53.7262964599304 623.449374415366
33.5657448176472 -45.3579143213628 624.566584194947
34.5915204345308 -50.399199729883 624.450532828307
33.9076700232751 -47.0383427908696 624.527900406067
32.590950070844 -38.6459163657747 625.645663689782
34.0128933711206 -43.7129472210855 626.453587659699
33.6698809629312 -42.027175576795 626.492394449498
33.3268685547417 -40.3414039325044 626.531201239296
32.6408437383628 -36.9698606439232 626.608814818894
26.1620860233849 -3.20804034532102 628.310586463827
32.68965020332 -35.288461747288 627.572088948925
33.1286447375813 -33.6034208361322 629.460014920565
27.2697101330394 -4.80905192620548 630.122866870566
44.8465139466652 -91.1921586559855 628.134311020563
26.961370556506 -1.37242011309012 631.126546802337
44.7996472929115 4.43514611569341 686.112491809121
31.4910823791583 -21.7129160879082 631.582872646613
31.7230880084889 -61.0341388365005 607.946129523266
33.0538239439053 -67.5741847718782 607.795576398975
34.3469282078892 -31.9057527211516 633.197367576344
29.1446639505627 -6.33866138064335 633.785926971548
32.6128401221137 -23.3833889409823 633.393554041412
31.9192048878035 -19.9744434289145 633.472028627439
33.1258148253867 -65.9937717979338 608.755640308737
31.792904484847 -59.4430395129886 608.906439434864
32.7925872402518 -64.3560887266975 608.793340090269
56.6374391023743 -96.2884692718726 658.192915193088
33.3482150047306 -25.07620492032 634.279153091386
34.1980320635538 -69.3290796250903 609.602543373444
34.5318032499695 -70.9694342837186 609.564782091453
34.8655744363852 -72.6097889423468 609.527020809461
32.8629473178908 -62.7676609905775 609.753588501408
32.3451529913255 -18.225284420353 635.361430610102
30.2577240730251 -7.96638883544687 635.597592373695
35.6067384945406 -74.3181000478347 610.411377653863
30.9892937466763 -9.6405037030412 636.483621926884
34.8222263776491 -28.4778664033467 636.049982188578
35.1706747986467 -30.1903539215564 636.010560394187
36.6838481442349 -77.6774521615184 611.257727214436
32.0709426451674 -13.0351208510209 637.330045184304
32.4199346674458 -14.7502799566225 637.290561889453
34.8628788233941 -26.7563936958329 637.014178825498
32.7689266897241 -16.4654390622239 637.251078594602
31.7219506228891 -11.3199617454194 637.369528479154
37.7631321990525 -81.0474906247696 612.103830773173
37.4277302087943 -79.3991212039657 612.141776556542
33.0675043354383 -57.9703187335146 612.635071740338
36.756926228278 -76.1023823623578 612.21766812328
38.5086450674543 -82.7771744293926 612.9876956139
39.2552451384177 -84.5122014087995 613.871437453709
40.7517068880294 -87.9982848919646 615.638552130572
40.414130492648 -86.3392291215931 615.676743915778
35.943408406386 -56.6305011971001 620.055374575265
35.6036576058814 -54.9607590771609 620.093812362308
35.3239384586805 -51.6518290606556 621.093667069217
34.6433496551097 -48.3070016459935 621.170665644222
35.0993585532561 -46.679666861057 623.055492200125
36.4648849706442 -53.3906943895164 622.901003046441
35.7821217619502 -50.0351806252867 622.978247623283
35.1555849975942 -45.0217778527475 624.017339623206
45.2121361160796 -90.5773479962035 624.816006567959
35.6077886867748 -43.3757419560676 625.902596682324
34.9850551606853 1.46211080741173 651.532294291259
35.3177411152386 -40.0160517791162 626.903619897959
35.6612971247089 -41.7044950107986 626.864751607701
35.3696187493302 -38.3367900716715 627.865959324713
35.0255191385791 -36.6456752525971 627.90488911543
35.0757659688283 -34.9583987829766 628.867413043563
28.5275449402226 -2.77645706011743 629.608247575917
29.2567497702001 -4.42599324298342 630.493957430423
34.268011486486 -65.6121215888405 607.298814556191
34.6006954703402 -67.2471330726849 607.261176275118
33.9353275026319 -63.9771101049961 607.336452837263
57.0898953428242 -95.6469399128695 654.844233143276
35.9125312759547 -33.2681126626965 631.677371248363
33.8786107955884 -21.3379701325214 632.875687937333
34.0811027936172 -60.7991858363534 609.255203253909
31.1423574604189 -5.95613669200799 634.153463219678
30.1002738051112 -0.834703661730629 634.271359600097
34.6159696447781 -23.0275801262659 633.76047528495
34.963330863214 -24.7347244696917 633.721176491477
36.3527757369577 -31.5633018433948 633.563981317585
36.1582483614467 -69.0603664159771 609.987826268907
36.4925631491433 -70.7033926619972 609.950003486457
34.1523596352675 -59.2022089398564 610.21476296361
33.9627964176625 -17.8832695715234 634.802580807376
31.8753674993622 -7.62437398661733 635.038742570969
36.0502253359629 -28.1421651564295 634.566419043783
34.3107012373793 -19.5930855023411 634.763220513444
37.2362547751523 -72.4111693692838 610.833487128042
37.5711131641297 -74.0568672026958 610.795602845132
35.2271044412882 -62.5369823688116 611.0607928255
36.0939489508423 -26.4228296381063 635.529680977427
36.7908457928373 -29.8478046745255 635.450837388644
38.6518375842392 -77.421028092962 611.64095620197
38.3164355939811 -75.7726586721581 611.678901985339
32.9956571626551 -9.26171899458578 636.848415565645
33.3446491849335 -10.9768781001873 636.808932270795
33.6936412072118 -12.6920372057888 636.769448975944
34.0426332294901 -14.4071963113903 636.729965681093
34.3916252517685 -16.1223554169917 636.690482386243
39.3987908179331 -79.1448343246 612.524070840799
40.558926098905 -80.9520921292476 614.328061400449
35.840466981497 -57.7627135675327 614.861885386904
41.3085973390029 -82.6892562978451 615.210868536982
42.7355957749868 -87.7552183567533 616.017046101266
42.8112014268836 -86.1796141593914 616.976113807292
42.4725378289405 -84.515215214236 617.014428593417
44.7329671761312 -89.7828110552585 619.661558493371
37.3085059567285 -51.3473156118159 621.469148035931
38.7349607914315 -56.4106060833322 622.275387100674
38.0521975827374 -53.0550923191024 622.352631677516
37.3694343740434 -49.6995785548727 622.429876254358
37.0280527696964 -48.0218216727578 622.468498542779
38.796976411308 -54.7682122011728 623.235992318183
37.0873503831688 -46.366069853639 623.429411262584
55.0502128688659 -94.4405830184023 645.971771579563
37.5456964106185 -44.7243083353403 625.31279891515
37.6022760176869 -43.0551985792619 626.27401913725
37.3136688114427 -39.6896308293253 627.274292150987
37.6577684221938 -41.3807456483997 627.23536236027
36.9695692006916 -37.998516010251 627.313221941704
36.6254695899405 -36.3074011911766 627.352151732422
30.1300229594378 -2.43764860049567 629.054636990091
36.6782439880434 -34.6195903233549 628.313802457737
35.7372933944512 -66.8638800726022 605.806158428665
30.8617553572689 -4.08665038516035 629.93947364178
35.4821990290667 -63.6500584058029 606.802052713407
35.8148830129208 -65.2850698896473 606.764414432334
37.5225919987308 -32.9277010084709 631.121141054087
37.6356565742537 -70.3131932925269 608.492489032472
35.6330294557594 -60.4710653407576 608.719056724419
37.301885387838 -68.6728386338986 608.530250314463
32.3698405318222 -5.65676927578944 632.671720177363
38.7156469545322 -73.6607902602404 609.337338189249
39.3261829392574 2.17906532609536 657.432799570067
37.967891595441 -31.2218213927665 633.006004717676
36.5784467216974 -24.3932440190635 633.163199891567
37.2731691585692 -27.807532705915 633.084602304621
36.9258079401333 -26.1003883624892 633.123901098094
35.1890018479537 -17.5646666453603 633.320395065459
38.7932365730017 -72.0819800772854 610.295594192918
36.1143694611829 -58.9163974099892 610.598668456195
36.7840862391376 -62.2077930768132 610.522899890376
35.9283446637162 -19.2510706535116 634.204370710718
38.0157735820166 -29.5099662384177 633.968208947125
36.276249483433 -20.9608865843293 634.165010416786
36.6241543031497 -22.670702515147 634.125650122853
39.8759449596841 -75.4429349819583 611.140135847398
40.2113469499423 -77.0913044027622 611.102190064029
35.6234294190479 -15.8053552818179 635.206488738232
33.8811873140602 -7.24291769076995 635.403597710189
32.8733956133078 -0.342839821346182 636.485235831539
35.6653317915345 -14.0641126661582 636.169369472733
51.7189648163381 -92.9614315238269 634.353137909602
41.7113957555989 -80.5431912444193 612.866549935136
41.3749065627792 -78.8894786488316 612.904618719423
35.0070757143413 -8.88186548972777 637.211462798773
35.3566113379004 -10.5996961827211 637.171918003463
35.7061469614596 -12.3175268757146 637.132373208153
37.4075590507609 -57.4313866827291 614.320499640513
43.8909461622647 -87.3345623259548 614.554034232156
43.2933829899715 -82.4376406022567 615.588673806237
44.3858761997085 -85.8466840799839 616.432108452451
45.0632033955946 -89.1754819702947 616.355478880202
44.0472126017656 -84.1822851348285 616.470423238576
39.5093366168087 -56.000003634626 619.884919280127
38.2116149948356 -47.6620773501573 620.998771445746
38.893291000968 -51.0122479396032 620.921649869823
39.5749670071005 -54.3624185290491 620.8445282939
38.9567469861366 -49.3639764844587 621.881504885433
39.6395101948306 -52.7194902486884 621.804260308591
38.6771905631157 -46.0299333850237 622.880166690842
39.1405917262727 -44.3871030703224 624.761807937774
49.1628231758324 -91.6823126348344 624.594974539576
39.6018184843064 -42.7335864060537 626.643695186544
32.0771441906848 -3.79262654734017 628.462035113089
38.2807220072586 -34.2807818637331 627.760191871912
37.0290705555015 -63.3230067066096 606.26765258955
38.3349367706535 -32.5870934229263 628.721092395329
32.1215741310251 -2.0508495334791 629.424042644774
37.9897499573408 -30.8906354290681 628.760145186965
40.0608708372169 -41.0693833922172 628.52582843715
39.3704972105915 -37.6764674045008 628.603934020422
39.7156840239042 -39.372925398359 628.564881228786
39.0253103972788 -35.9800094106426 628.642986812058
37.7740121082522 -65.0110135057502 607.149820328716
38.4401046897583 -29.1836870169612 630.64326244492
33.5922684675181 -5.35847065597349 631.191723540681
37.5955828829556 -60.1879253982822 609.102900716545
39.6014716091348 -70.0460828744029 608.875964021842
37.9298976706521 -61.8309516443024 609.065077934094
38.9328420337418 -66.7600303823627 608.951609586743
38.4910578454683 -27.473969051803 631.604531971093
36.4101521425377 -17.2471325155997 631.839955729175
39.6805015928964 -68.4613951184629 609.833469823613
40.3502183708511 -71.7527907852869 609.757701257794
40.6850767598285 -73.3984886186989 609.719816974884
36.8501784506199 -15.4894239430467 633.724241495856
38.9376073689202 -25.7483195279528 633.488079732263
35.1106543520362 -6.94034428895825 633.921042965517
37.5459880900533 -18.9090558046821 633.645520907992
37.89389290977 -20.6188717354998 633.606160614059
38.5897025492035 -24.0385035971352 633.527440026195
38.491517586579 -58.6718260494479 611.900879565223
38.6373940972287 -22.3127561076254 634.489078555124
36.895151992241 -13.7503185165774 634.686187527081
42.6029818713697 -76.9049735666416 612.402174960137
42.26649267855 -75.2512609710539 612.440243744424
36.5900463090222 -10.290710809723 635.687739854075
36.2410542867439 -8.57555170412149 635.727223148926
37.3313730913576 -11.9739088322812 636.570903796977
44.1102602178568 -80.3664779614637 614.164542423773
43.7726838224755 -78.7074221910922 614.202734208979
39.7937302450101 -57.1793345545989 615.619340939192
44.8655301949429 -82.1052449210505 615.045541654213
45.8798901849295 -87.0904269943408 614.930781797217
45.9605509725335 -85.5137540005764 615.88810309761
45.6218873745905 -83.849355055421 615.926417883734
36.0502123797178 0.202892603032758 639.616950587048
47.0577461552473 -88.93294942967 616.73041853917
40.2736021707712 -55.591538778725 617.497944270846
44.4736134316946 3.00910018755177 665.169104897927
41.1597520513401 -54.0273508568364 620.297030127791
40.2026779938829 -47.3506175319299 621.371755804929
40.9508811543183 -49.0546538554219 622.25355454134
