ply
format ascii 1.0
element vertex 602
property float x
property float y
property float z
property float nx
property float ny
property float nz
element face 0
property list uchar int vertex_indices
end_header
55.6924852291856 66.7407692489898 922.126394373094 -0.409249 -0.524212 0.746805
61.2018674396947 67.0814532056038 924.573778071529 0.407609 0.494068 -0.767953
66.6385430948432 64.8176349966364 926.013492310108 0.572091 0.447986 -0.687038
69.7855574971705 67.6993098746496 929.720209217148 0.615432 0.419078 -0.667545
78.4735776952996 66.6367577128011 948.924305041968 -0.896915 -0.298023 0.326688
-60.7888390350873 69.440397454297 981.437526154162 0.847913 -0.232082 0.476636
-55.9216180450423 68.815043451012 969.872877014606 -0.889752 0.270065 -0.367974
-51.1737102754826 68.1865775382126 958.32055883824 -0.79648 0.372727 -0.476124
-46.3071306152209 67.9031614127929 951.783986989922 0.79696 -0.416153 0.437803
-43.9634526884755 70.3260657750387 948.53466762183 0.844395 -0.383663 0.373897
-39.4167280405343 69.7334646001949 938.008640687872 0.851527 -0.367746 0.373716
-34.9173839092759 69.2107464703145 928.493123022964 0.800785 -0.376834 0.465553
-32.7365413336065 66.3421616986326 922.22461154459 0.79086 -0.427135 0.438288
-28.3167945194188 68.4583574380287 914.737992621646 0.969142 -0.223997 -0.102902
-22.7786312815853 66.8959513848619 890.030925772203 -0.853822 -0.216155 -0.473566
-20.581390430256 71.7050599254766 888.816464140381 0.987121 0.084953 0.135554
-16.6655502251974 68.583418824769 877.340795511941 -0.761497 0.489744 -0.424586
-12.0822553075363 71.0078378025271 875.870484949309 -0.32601 0.490001 -0.808466
-4.19725598391962 71.8260900317766 883.100639257382 0.737801 0.214288 -0.640101
1.26267301151837 70.0110273091375 888.561019160681 0.014437 -0.349071 0.936985
6.28739521191184 70.2897747836287 890.052962228973 0.654836 -0.559629 0.507943
14.4549619649483 71.0935737301436 897.253830821173 0.611977 0.421371 -0.669276
17.246633087143 71.3879258134629 899.982181459589 0.594707 0.471484 -0.651174
25.5904580068055 72.1963218990333 907.164833856167 -0.414676 -0.729172 0.544382
28.3129773846517 72.4150236649379 908.8947084642 -0.466172 -0.466331 0.75181
33.6536127626702 72.7758574515215 911.359624889005 0.442988 0.291873 -0.847686
38.9477573867683 70.568335470674 912.814296541998 0.334893 0.37984 -0.862304
41.5713660104969 70.7078828536325 913.548760385085 0.432113 0.493326 -0.754922
47.2865661308425 71.2125399280934 917.986159816642 0.474925 0.427956 -0.76896
56.0404066927161 72.0098068160924 925.126354786665 -0.489824 -0.354797 0.796362
61.4659585100478 69.7566100588718 926.567259923337 -0.451541 -0.451174 0.769775
67.6320773423715 72.9522083791328 932.978873915865 -0.437003 -0.537481 0.721209
74.5291179647534 71.2599670804946 942.312426194377 0.889216 0.181224 -0.420063
-60.8249363752015 72.1620892151738 982.456894247224 -0.862028 0.273708 -0.426605
-55.8717448364421 74.4285929550313 974.915659757915 0.851993 -0.337316 0.400407
-53.5004798803288 71.2863423431285 966.615727501891 -0.848652 0.331734 -0.411999
-48.6634599632775 70.8435502389174 958.07092372483 0.801072 -0.373582 0.467675
-43.9283194236736 73.0416252087423 950.551987484481 -0.851586 0.343899 -0.395644
-39.323659472479 75.1215318588853 942.04075881411 -0.861317 0.314733 -0.398844
-34.9202574720083 71.7996378890766 929.508552082597 -0.824153 0.356055 -0.440451
-30.3796061015525 71.4011394928646 921.999918170102 0.853303 -0.291372 0.432409
-28.1606971767865 76.2979122996556 919.778202833407 0.96935 -0.007988 -0.245555
-24.1714494624621 75.3710267209517 906.292551086588 0.384281 -0.534098 0.753039
-20.6426475216456 74.1149218526617 888.831912358467 0.934855 -0.181429 0.305171
-14.5072519515909 73.323314283317 876.130100733575 -0.316472 0.486961 -0.814073
-11.9311948885397 76.015318692037 878.889821366313 0.427912 0.332536 -0.840423
-4.0228993136416 76.8778248586794 886.117733037672 0.742168 0.218481 -0.633603
1.20127732942423 72.4263414126284 888.576502329486 -0.015092 0.506652 -0.862019
9.24668306448784 75.6875159183238 895.799299177844 -0.64986 -0.034948 0.75925
15.0377233385886 76.4729769858605 903.245945642952 -0.590654 -0.423326 0.686966
20.2387012482892 74.3012155818019 904.710390422539 -0.521799 -0.472047 0.710561
25.8507655294828 77.3894211538711 910.173570657415 -0.428645 -0.522133 0.73732
28.6443400794784 75.1330470525692 911.886736891236 -0.396491 -0.495351 0.772931
33.7272894529623 75.3421943829619 912.367049693825 0.443645 0.461304 -0.768361
39.3902750018486 75.8727685598435 916.809948613085 -0.407047 -0.48881 0.771607
41.7981174415931 73.3575147604968 915.546008446941 0.423799 0.505364 -0.751666
50.4195138372683 76.6964537647683 922.709514156767 0.513019 0.371435 -0.773852
56.2289292476593 77.2308471033268 927.137279621203 -0.507641 -0.345344 0.789327
59.0733349193882 77.458183680268 928.854577967601 0.543882 0.335933 -0.768987
64.8595466817761 75.3620870256081 932.269454733641 -0.516003 -0.466581 0.718361
70.7967567817196 75.8861740085652 936.683961110597 0.750829 0.222845 -0.621768
75.0974991448872 76.7368124455249 946.295709777929 -0.876861 -0.200576 0.436902
-60.8041893728359 77.8539880234654 987.502986267602 0.897423 -0.276781 0.343547
-53.4645256315615 79.6030667926839 972.675514017436 -0.861514 0.322924 -0.391809
-51.059964000414 79.2692696933476 967.398786460216 -0.767028 0.442342 -0.464759
-48.6610887163176 76.2563373653377 961.107174153142 -0.795863 0.37307 -0.476886
-43.8088529333663 78.5860645511915 955.587309639349 0.816287 -0.342107 0.465444
-36.9178358458737 80.2854447820369 941.81140476919 0.855583 -0.28199 0.434118
-34.6864742404891 79.9334908280967 936.552525781629 0.849 -0.293434 0.439426
-30.3076507182496 76.6384282945345 925.028306720103 0.84793 -0.23374 0.475795
-28.1550892704519 78.8733854533018 920.792703768751 0.527747 -0.402339 -0.748068
-24.1595173883443 77.9112021790423 907.306264343927 0.498337 -0.344184 0.795737
-20.5874630238295 81.6131986113495 891.870584244312 -0.896623 0.318095 -0.308031
-14.1888219876507 78.5128607547169 881.143498699507 -0.378693 -0.500038 0.778815
-9.43256315284741 78.6369127839995 880.651941666876 0.526279 0.436529 -0.729707
-6.67046891961013 79.0479864873955 884.389136911317 0.693575 0.360237 -0.623846
-1.38544411117735 79.6096211815138 888.871252594689 0.020529 0.484237 -0.874696
3.84697611892759 80.0851255569033 892.353140851258 0.286555 -0.468195 0.835871
15.1480835566771 81.5664954615732 905.264474085841 -0.475863 -0.345652 0.808752
17.8402202665839 81.8062279553226 906.99757123755 0.530467 0.38733 -0.754043
23.5086726737813 82.4626214445508 912.445723949789 -0.459193 -0.491637 0.739888
26.2387726811152 82.7033440913276 914.17489761321 -0.331964 -0.442423 0.833104
34.074437064935 78.0797247389611 915.357518953399 -0.477986 -0.512209 0.713562
36.6978378026067 78.2274503863783 916.092035222565 0.464668 0.469811 -0.750574
45.1271567297668 81.5229955844925 922.269903294039 0.368856 0.451913 -0.812231
47.9333219226596 81.7602463610181 923.991195030165 0.408394 0.419282 -0.810812
53.3310641454494 79.5336032331643 925.435077412069 0.494663 0.352512 -0.794383
59.3311711173105 80.1659121409386 930.848830022054 -0.56529 -0.3171 0.761508
68.388010942517 83.6882592655384 938.973326988993 0.472457 0.451818 -0.756733
71.3545684868547 81.3518321201189 940.668295789363 0.831421 0.244354 -0.499029
75.2064366138687 79.4104569679567 947.299892633493 0.876462 0.19285 -0.441162
-60.81580883838 83.5175701659695 991.546975850425 -0.893366 0.282201 -0.349656
-53.4028957816101 85.2878482147604 977.717349874283 0.737686 -0.425558 0.524138
-50.9591093741331 82.216073550846 971.420869122678 -0.796517 0.383304 -0.467588
-45.9919007385094 84.6335577354021 966.894786304931 0.750657 -0.428008 0.503312
-41.4221839309222 83.7356448754013 954.354539287857 0.864311 -0.304807 0.400073
-36.9245990936963 82.9206089741825 942.827411159104 0.855583 -0.28199 0.434118
-34.6901793474486 82.5550953046939 937.56816454558 -0.849 0.293434 -0.439426
-30.102136383493 84.6895135299248 931.06954822522 0.771962 0.188472 0.607086
-25.8722440434845 83.8374888626162 919.569972534687 -0.214905 0.252307 0.943481
-22.2854644142887 84.8906957559984 902.112067246952 -0.73314 0.000493 -0.680078
-18.2229219229088 86.6070988220072 892.650201636779 -0.738523 0.497768 -0.454765
-14.2226484145499 83.386921297792 882.17076961904 0.243598 0.581644 -0.776113
-8.96337764801758 86.4768369443619 887.6704521466 0.656305 0.640244 -0.399189
-6.31330426400389 84.3149243053208 889.398820449872 0.796189 0.541755 -0.269416
1.62221215787507 85.1533958490859 895.618481677442 -0.122119 0.640194 -0.758445
7.01229891276101 85.7450497081668 900.08984239704 0.427348 -0.511102 -0.745753
9.8958636677676 86.1811147515169 903.814566232005 -0.403047 0.425657 0.810166
17.8977655629689 84.3666883591598 908.00664258663 0.532363 0.455919 -0.713252
23.7593207064032 87.7154824631043 915.455685956444 -0.392968 -0.454622 0.799309
29.1109621821411 83.032530988969 916.895050481042 -0.366551 -0.47907 0.797579
31.7315126650064 83.1856380874759 917.629881950091 -0.428141 -0.532858 0.729903
39.9098830702095 83.8227365873208 921.812971776099 -0.371159 -0.488535 0.789668
42.7023513518881 84.0650859140711 923.535699708761 -0.316067 -0.488203 0.813486
48.2554525022276 87.0831691642331 926.994027193403 0.375474 0.47093 -0.798276
56.5106736497904 85.1032988564722 930.153929003408 0.564261 0.453614 -0.689814
60.2640184696765 88.4462090541519 937.821040529672 -0.546481 -0.518865 0.657371
68.6610776947672 86.4373033998003 940.966159678861 0.45487 0.501183 -0.736145
71.7393536675405 86.7718654138759 943.665013610274 0.766579 0.350176 -0.538269
75.8816764024165 87.6427295000067 952.287883333405 0.874935 0.202362 -0.439931
-58.3554944446419 85.9214999256267 987.28017529151 -0.858875 0.337494 -0.385267
-55.9163190009014 88.3030551783306 983.015476923024 -0.780628 0.433342 -0.450371
-48.4149781306643 90.4339615660402 974.204784867886 0.792708 -0.353418 0.496699
-46.0307239052873 90.0450769019155 968.929949796776 -0.797199 0.34654 -0.494352
-41.3827360635524 86.4949631699843 956.371578257938 0.865561 -0.278465 0.416246
-36.880652045628 88.2990178328584 945.859230670287 -0.800871 0.300978 -0.517704
-34.5768033736227 87.9982501281727 941.598390185708 -0.841621 0.312579 -0.440418
-30.4281978234993 89.4487899850283 928.1052418197 -0.99564 -0.012194 0.092475
-25.9275376064142 88.9155816658631 920.600235601188 0.805289 -0.305541 0.508089
-21.9493860332086 90.367325092065 908.130068557112 -0.883429 0.33333 -0.329309
-17.9558333875466 89.4191156966808 896.654578106086 0.881293 -0.341067 0.327103
-16.1311005716108 88.7970189720176 889.426055484346 -0.650851 0.539061 -0.534609
-11.6023271942145 88.6281281316563 885.940892945235 0.128249 0.957882 -0.256932
-5.89578335658727 87.2074393420491 894.39328295002 -0.193203 0.952536 -0.235261
1.76816802873111 87.7790972942397 897.623997411323 -0.057405 0.508891 -0.858915
4.40836734858753 88.0338425377981 899.362524149295 0.165689 -0.462336 0.871087
13.1343412423653 91.9520627349521 911.544119815604 -0.505456 -0.507629 0.69773
18.4299269062988 92.377191033746 914.01393963566 0.474463 0.446239 -0.758786
23.9471387051408 90.4022894510822 917.457102161626 -0.381989 -0.470005 0.795726
26.8187045479963 90.7560111421 920.177412307696 -0.375577 -0.475927 0.795258
34.8487305870767 91.3372169984828 923.370293131938 -0.399254 -0.438356 0.805258
37.5575763616346 88.9775073469396 924.086490076757 -0.513283 -0.475424 0.714502
45.9021756587212 92.2761051579927 929.267790149099 -0.434945 -0.470509 0.767753
51.3214033082699 90.0582060963276 930.709482963776 0.435924 0.530429 -0.72706
57.423777104568 93.413087662854 937.128293484129 0.593553 0.367158 -0.716163
60.5206766466105 91.2002810134222 939.815589665242 -0.5561 -0.419659 0.717384
66.3002986624894 91.7118805877152 943.241007393679 0.433109 0.487319 -0.758246
72.0173586805287 89.5401336156408 945.657408129335 0.688723 0.441417 -0.575162
76.1644810854384 90.4356739455803 954.279874632377 0.863473 0.254688 -0.435372
-58.3236144590955 91.709165445352 992.325477703665 -0.807669 0.372952 -0.456703
-53.2936303965117 93.964226132163 985.781599534898 -0.690097 0.575563 -0.438741
-50.8679683282762 90.7308393838327 978.481039056453 -0.718508 0.52445 -0.456835
-45.9094232825314 93.0415161478964 972.950105022408 0.8238 -0.354627 0.442259
-41.3183829468159 94.7413094980626 961.422817248577 -0.826384 0.314087 -0.467375
-39.0066506986688 94.3232543715703 956.155374151281 -0.852359 0.314097 -0.418123
-32.1095613854231 95.9111427950254 943.383763216123 0.868224 -0.327245 0.372959
-27.7817118063477 94.9416456315564 931.873609889038 -0.72276 0.183852 0.666195
-28.1291285993465 91.8325338661205 925.865732706265 0.912189 -0.374694 -0.165879
-23.7843449331268 96.2573019197461 918.395596908074 -0.496325 0.463871 -0.733816
-19.7845116497889 95.1481169668921 905.913504487737 -0.893425 -0.408469 -0.186937
-15.7224633712388 96.7772144867911 896.451359915212 -0.729571 0.294793 -0.617108
-11.1551030382451 96.5847790060808 892.962116609576 0.419136 0.32565 -0.847512
-3.07519454264059 95.1794242004193 900.163700841337 -0.562501 0.266062 -0.782817
-0.440834323101569 95.4503845224628 901.902892929796 -0.054075 0.63025 -0.774507
7.74559377867232 96.4729070481578 909.10263730831 -0.689181 -0.215025 0.691949
13.351894942946 97.2258837561341 914.557584615099 -0.543275 -0.347297 0.764354
16.0621817573393 97.4988243842322 916.288929726981 -0.567077 -0.384729 0.728291
21.4562164158507 95.4386797153703 918.739168779752 -0.485661 -0.44273 0.75374
29.511615109461 93.5272508469529 921.920000613401 -0.387485 -0.446971 0.806271
34.784701681597 93.8561224517849 923.386440364417 0.374303 0.465614 -0.801935
37.7075812563327 94.21936618637 926.101478202462 0.41521 0.38779 -0.822933
43.5374977959891 97.4905669561109 931.542813904328 -0.495616 -0.356905 0.791823
48.9620101830371 95.2782615211841 932.983981171397 -0.463312 -0.464665 0.754605
57.6748040672414 96.1751964361506 939.123455544104 0.635123 0.346437 -0.690362
63.8303049798211 94.32371760581 944.511742154372 -0.534201 -0.418888 0.734276
66.6677051329276 97.1751069406217 946.239686315327 0.453633 0.422017 -0.784932
69.7505728896777 97.5425234629649 948.938189452731 -0.453633 -0.422017 0.784932
76.9036804841136 96.1517671124811 959.25173557517 -0.8016 -0.329978 0.498551
-58.293120380594 97.5513527281357 997.371129623016 0.800851 -0.365638 0.474285
-53.2450247264332 96.9176573933482 988.803768683627 -0.627468 0.625808 -0.463302
-48.1953175143084 96.4753438430248 982.247651868934 -0.596762 0.621211 -0.507909
-45.4811460320226 99.4982979917725 984.994336090026 0.600364 -0.647882 0.468841
-43.5255003289322 98.1717360481561 970.712201918644 -0.858399 0.359596 -0.365844
-36.5071919100811 99.66711621411 956.922357708784 0.844197 -0.361683 0.395623
-34.2930538043589 99.1181110297659 950.659171814706 0.879935 -0.278291 0.385057
-29.8299472747665 100.87496839746 941.156021557306 -0.896736 0.29011 -0.334216
-25.683450478622 99.6330203917572 927.652911489399 0.886054 -0.183501 0.425717
-23.7737987660541 98.8519991408952 919.409659672609 -0.393966 0.544617 -0.740394
-17.8134764862358 97.1380912466181 900.690410223078 -0.825854 0.371882 -0.423874
-15.530504271247 99.535248298841 899.45796065534 0.810947 -0.156999 0.563662
-11.0984217393773 101.655074272245 894.986110232854 -0.417488 0.085134 -0.904686
-5.56971517304997 97.5612847546263 900.430759738685 -0.530882 0.619718 0.578026
-0.200342450683877 98.2205957410166 904.904519086421 -0.052327 0.519666 -0.852766
5.22326355372103 98.8813212317317 909.37267345089 -0.378526 -0.465864 0.799806
10.6379054789121 102.029653622238 913.851160360252 -0.740501 -0.264384 0.617867
16.2331754086473 100.207015726136 918.292167230023 -0.583613 -0.418423 0.695929
21.5152953553493 98.0455543430234 919.748256960786 0.485658 0.443075 -0.753539
29.9071427405932 98.9723089166147 925.921045389814 -0.3732 -0.528405 0.762568
34.9291446573867 99.1032920170886 925.402023939168 0.272869 0.49622 -0.824202
40.6595151820721 99.758379016474 929.838422771372 0.491328 0.377235 -0.785042
46.5912160385786 100.519842750399 935.25974017855 -0.504753 -0.32682 0.799008
52.1304356995732 100.967692847572 937.704442426058 0.440444 0.47282 -0.763184
57.7675408469635 98.8456905191321 940.129302419289 0.647561 0.447109 -0.617056
64.1233301012018 102.392872057263 947.527968267503 -0.573064 -0.259845 0.777224
67.1003185298337 100.073084341626 949.221920923379 -0.573064 -0.259845 0.777224
73.8128922065998 101.133740624849 957.579620581621 0.097383 0.370451 0.923733
-60.8267548000772 100.869216013926 1004.68317903035 -0.840131 0.347194 -0.416697
-58.2972193666384 103.346070002845 1001.41483702646 -0.820183 0.331646 -0.466166
-55.7509238639244 103.007979431958 997.128774760577 -0.684667 0.365299 -0.630705
-47.933820535316 102.706235612901 991.292251107949 0.564007 -0.581511 0.586294
-45.5488475911715 102.16168611718 985.011409516576 0.921155 -0.304628 0.24223
-41.0476306471986 103.490290213926 970.475979517299 0.802105 -0.352277 0.482213
-36.5154796556533 102.36225434562 957.938748556614 -0.844197 0.361683 -0.395623
-34.2379596105477 101.902388469023 952.674686568046 0.88583 -0.304022 0.350537
-29.7635213570818 103.640446120511 943.170292986473 0.878396 -0.241231 0.412587
-25.6763089291738 102.254907769219 928.667429256696 0.783579 -0.08605 0.615305
-22.1094827544705 102.898216380621 910.204694731868 -0.949381 0.069749 0.306287
-19.876195567651 105.201135574872 907.971685062084 -0.807609 0.429092 -0.404535
-13.4638108463603 106.684020625532 897.260506161941 -0.578921 0.44952 -0.680281
-11.1601638982327 104.084018816501 895.001680778459 -0.589853 0.416183 -0.692
-2.86935149598496 102.962797183064 904.193208911684 0.269651 0.3119 -0.911047
-0.387855673874355 105.59739028283 904.95180741011 0.461911 0.068967 -0.884241
7.82075995354496 106.707784156365 912.149588757668 0.062258 -0.565125 0.822653
10.5747081176594 104.515846017705 913.867097888413 -0.761178 -0.196226 0.618145
16.4572703084319 105.543748950484 921.305193215303 -0.576915 -0.47264 0.666169
24.6926383352472 106.414398704964 926.488613390055 0.474002 0.383807 -0.792474
30.3015616460893 104.460984396723 929.922369771983 -0.390828 -0.516234 0.762073
35.4813686783683 104.702664804583 930.392785833647 0.21154 0.508154 -0.834884
41.0318366053223 107.824339404556 933.851777381962 0.438244 0.427461 -0.790708
43.6320336949909 105.341575058755 933.573404952732 0.479109 0.393658 -0.784531
52.9144511610317 106.756073716788 943.677284166345 -0.292019 -0.550765 0.78191
55.0797505644889 103.920398896634 940.426535909021 0.340926 0.512545 -0.788078
61.0917042211007 107.289095978279 945.849408830009 0.477197 0.398795 -0.7831
67.2340833333315 108.088789336906 951.249076506758 0.597699 0.391785 -0.699471
70.4983296382577 108.600252751416 954.934704618318 0.772297 0.378357 -0.510297
78.7938426150245 105.303647839264 971.154927115091 -0.883001 -0.269092 0.384577
-62.8036077802029 109.465628522537 1036.08583481459 -0.999214 -0.025593 0.030282
-60.7820953627767 106.922014242662 1010.73350548218 0.895129 -0.229 0.382495
-58.2996846317741 106.259785169117 1003.43679558034 -0.846024 0.336893 -0.413215
-55.7476886194472 105.910931696051 999.15010291469 -0.711118 0.392231 -0.583494
-50.5436851154228 105.631247484466 994.589326567223 -0.53707 0.45074 -0.713015
-43.201194953134 109.999760255888 982.787496455157 0.937378 -0.196727 0.287438
-40.9731698150031 109.183396444879 974.511175880491 -0.910313 0.243659 -0.334605
-38.5697609654649 108.808844379696 970.239757115954 0.845343 -0.270158 0.46088
-31.9923149062666 106.794209270007 949.44484311508 -0.88381 0.223652 -0.410925
-27.4207331930986 108.701589295151 941.941727659244 0.900032 -0.216453 0.378272
-25.3724199123892 110.61973241914 935.705023909378 0.603646 -0.792243 0.089228
-21.6881955476848 111.255384943891 918.235459443 -0.913727 -0.154691 -0.375732
-17.4711089505415 110.30793700326 908.747534957688 -0.76386 0.457863 -0.45484
-15.5477976946875 107.088726971455 901.498995328074 -0.697332 0.430016 -0.573424
-8.31286752733496 109.724349601526 900.760520227086 0.453462 0.513482 -0.728497
-5.49986618896692 110.267690040587 904.49294930553 0.539838 0.83008 0.139797
2.61574462268547 108.824882346932 910.685354969212 -0.129245 -0.492249 0.860806
8.23823231365662 112.270907625212 917.154153406 -0.499061 -0.67552 0.542781
10.8943091539372 109.958923781313 917.875989641401 -0.877591 -0.267686 0.397716
17.0313004676886 111.266639313469 927.29950993242 -0.456459 -0.415085 0.786987
25.0645323837008 111.935221441178 930.49238946985 -0.380425 -0.28048 0.881254
30.4996693785379 112.421275302428 932.948003315965 0.458699 0.420674 -0.782706
35.9673463425983 112.908177866273 935.400254172119 0.31263 0.498493 -0.808559
38.5703243917211 110.422758157535 935.121584018365 0.296982 0.424728 -0.855224
44.2229924076387 111.018339192774 938.560452419834 -0.361089 -0.535439 0.763492
53.1535227416613 109.561516999667 945.673846828731 -0.390695 -0.418773 0.819748
55.9683980377252 112.445053590583 947.404242687312 -0.463762 -0.385205 0.797836
61.7620725869437 113.044312337068 950.828538132284 0.528484 0.497074 -0.688202
64.8382696991494 113.460656995731 953.527916324491 0.584795 0.498027 -0.6403
75.4304792382117 112.875275075118 968.515456926599 -0.894028 -0.228089 0.385603
79.7030286880141 111.29170186587 977.115575121442 0.892474 0.281406 -0.352564
-62.791769095835 112.584502458456 1039.11243295023 -0.999214 -0.025593 0.030282
-60.8602494432985 112.599841345567 1012.77374454925 -0.883242 0.228895 -0.409256
-58.3416734917269 114.95346065986 1008.50072672607 -0.793023 0.286389 -0.537677
-55.7420496747199 111.749549282072 1003.19296892724 -0.680135 0.388588 -0.621624
-50.5157984950619 111.448622166994 998.629810783582 0.748932 -0.357086 0.558203
-43.2195579608751 112.771016680031 983.805217360552 -0.922843 0.176914 -0.342144
-40.8998177084436 114.920120086279 978.54665184944 -0.922772 0.203798 -0.327046
-38.5941158267898 114.291666189483 972.273693472175 -0.904718 0.207129 -0.372266
-31.8752530052409 115.101944041774 954.490861580366 -0.85479 0.304195 -0.420475
-29.6967079924074 111.76936357635 947.215489862721 -0.845102 0.292042 -0.447788
-25.2953552243535 113.393671307515 937.718226767971 0.966314 -0.128951 -0.222728
-21.5231360572915 114.1109214025 921.245211538553 -0.989715 0.110823 -0.090456
-19.3389795358231 116.297794033557 918.011501963844 -0.922428 0.231304 -0.309232
-13.152795485111 112.165258529295 902.275773991374 -0.223357 0.892702 -0.391402
-10.7177211215686 112.228769773477 902.024110242627 -0.223357 0.892702 -0.391402
-2.39966519283982 116.247807364355 912.237598176203 0.325371 0.565176 -0.758096
3.04592045115378 117.004582467368 916.703841935795 -0.232571 -0.181969 0.955405
8.50077312101526 115.134442367911 920.153851482389 -0.547798 -0.647424 0.529868
14.2278493962167 113.484565279765 925.587220040216 -0.689644 -0.37007 0.622447
17.0839859440518 113.911537724831 928.309403266818 -0.455676 -0.207206 0.865694
25.0000877061076 114.470483423398 930.508641554488 0.33121 0.356817 -0.873488
27.6496349498673 114.657081557118 931.240599987057 0.407725 0.364131 -0.837358
33.2312453363164 115.272632441959 934.686894669653 0.401485 0.498565 -0.768272
41.467563275882 113.395929132712 937.849142038312 0.401367 0.503433 -0.765153
44.3018936854421 113.699384002286 939.567770442276 0.366887 0.525382 -0.767703
50.2363962494501 117.126074717241 944.998874797755 0.520194 0.411423 -0.748417
56.1463694083979 117.867682950702 949.417021196805 0.483372 0.43926 -0.757233
62.1768915014886 116.001839326139 953.812838693232 -0.521634 -0.489158 0.699015
68.0965383130537 113.993787665032 957.214244737256 -0.535275 -0.488351 0.689198
71.4780741106881 117.277317676344 961.90356382068 0.826085 0.219281 -0.519133
-62.7803461835806 115.719732923292 1042.13913593802 0.999214 0.025593 -0.030282
-60.8995343696161 115.446933161479 1013.79391650886 -0.891371 0.232413 -0.389156
-58.3451781871464 117.908067148426 1010.52294741034 -0.759094 0.397985 -0.515155
-53.1078466997788 117.470840719687 1004.95278407729 0.651441 -0.421054 0.63114
-50.5579001804742 120.019345883975 1002.68794511337 -0.621485 0.428354 -0.655949
-45.5624223781718 116.290457610065 992.103637727944 0.868844 -0.293364 0.398809
-40.8635574272773 117.804838435896 980.564494686074 0.922135 -0.193892 0.334773
-38.5101942452315 120.039577084359 976.30811834591 0.912537 -0.219126 0.345341
-27.2048439958694 119.781102668871 948.998689514456 0.899946 -0.295331 0.320744
-23.4105451114236 117.666986043902 930.501997998646 -0.793442 0.262259 -0.549244
-21.3462046427686 119.615747570533 925.269095656674 -0.867585 0.263192 -0.421933
-19.244882614301 119.042170303547 920.022831098498 -0.828175 0.501313 -0.250621
-14.8712731286219 118.276505043941 912.530089158768 -0.622183 0.559994 -0.547079
-7.63979110900105 120.813639968411 910.786254769236 0.088642 0.359294 -0.929005
-4.9905468118954 121.13954640481 912.524114869911 0.597314 0.291052 -0.747332
0.504123510023149 119.431584191499 916.975962150037 0.167918 0.491845 -0.854337
8.43715998764908 117.636991292296 920.169893862709 0.642094 0.302938 -0.704233
11.3716318477864 118.205323071311 923.889851531677 0.673426 0.369783 -0.640123
17.0722267428219 119.091698118412 929.335548685854 -0.436211 -0.293061 0.850785
22.4714884461635 119.601367345227 931.794963049332 0.363032 0.403077 -0.840082
27.9032901187285 120.111885274637 934.251014422849 0.571531 0.411304 -0.710057
36.4512451462607 121.19547357255 940.408246771385 0.145382 0.639634 -0.754806
39.5565518448204 121.768261040188 944.110548743059 0.201614 -0.932162 0.300709
48.1233756956068 122.729392640854 949.260022531505 -0.520184 -0.545057 0.657512
50.618744490124 120.080026915564 947.986520873305 0.488899 0.529345 -0.693377
56.6993881315446 120.959946964022 953.392878292444 -0.448343 -0.464801 0.76351
59.4491976517238 121.151888018896 954.114484981327 0.484566 0.45891 -0.744713
68.8903215986954 122.600339352706 963.19673104934 -0.518522 -0.385255 0.763357
71.5795093908982 120.032603392931 962.908831435366 0.824818 0.231418 -0.51587
-60.888280830509 121.512306046721 1018.84240265354 0.847252 -0.330204 0.416088
-58.3161686785875 120.991926289654 1013.54763687132 -0.772264 0.380808 -0.508521
-53.1386501570294 120.304514270482 1005.97202791262 -0.682685 0.44771 -0.577492
-50.463351431248 123.214223763389 1006.71161803357 0.690289 -0.442915 0.572126
-43.1285023043853 121.481995228797 989.86079434799 0.925207 -0.261711 0.274772
-40.8435028525682 123.482692640096 983.599917981818 -0.922289 0.212618 -0.322765
-38.5773414415625 122.681156504543 976.325051969581 -0.912537 0.219126 -0.345341
-31.5730345514271 123.873375083792 962.535509988088 0.871203 -0.235298 0.43086
-29.30714671953 126.026723243685 958.287875084881 0.923505 -0.193399 0.331263
-25.2069178422159 121.525880653237 941.761199126271 0.875253 -0.450718 0.175457
-21.2462134881387 125.031080804738 928.295257115103 -0.721386 0.444571 -0.530998
-19.1360635138428 124.430454831872 923.047977055838 -0.853798 0.437846 -0.281637
-14.5566502808891 126.518660820965 918.56076599885 -0.670481 0.168637 -0.722507
-10.0727314791856 123.355518122341 912.052891931449 -0.167789 0.545939 -0.820852
-4.73755021181366 126.640900702592 916.540117060737 0.622765 0.465967 -0.628521
3.47360164694106 125.282421761309 922.722958015331 0.068269 -0.420124 0.904895
6.17965229948297 125.615265603556 924.454967834293 -0.482212 -0.567996 0.666973
11.8464599089546 126.549861534815 929.904342534908 -0.574329 -0.379419 0.725388
17.060190360183 124.282762864605 930.361764006329 0.457954 0.436645 -0.774351
25.4905736964003 125.401475212361 936.53129172393 -0.272133 -0.263194 0.925566
31.0222795659404 123.369472322903 938.967395347606 0.613057 0.302384 -0.72988
36.6572916902013 124.019150769904 942.408294751252 0.036769 0.5621 -0.826252
39.4910677369434 124.344414344702 944.127062958094 0.089698 0.681989 -0.725842
48.3504225988403 125.580896521467 951.258003271663 -0.497998 -0.44731 0.742908
51.2330085994173 125.907433150157 952.971726993564 -0.422015 -0.46707 0.777013
56.9424971333331 123.820053460391 955.3892299637 -0.462513 -0.479455 0.745791
63.1918825900465 127.476109972912 961.79397109596 -0.506132 -0.400765 0.763687
68.9217594277681 128.002585940566 964.21924748758 0.490033 0.408618 -0.769999
-60.7885898067043 128.003389948441 1026.89938053085 0.945561 -0.179473 0.271486
-58.3247025671759 126.961113206151 1017.59246269779 -0.817186 0.35829 -0.451481
-53.0864444749841 126.360043681356 1011.0162404184 0.698311 -0.392205 0.59878
-50.4917204058057 126.058872392013 1007.73065152117 0.711812 -0.385602 0.587057
-40.8080048202767 126.397397959396 985.61795304741 -0.895493 0.292393 -0.335557
-38.4405982502554 128.61340761687 981.36005313391 -0.88133 0.314249 -0.352852
-33.8809472988675 129.946844276301 969.834627399312 -0.094409 -0.779734 0.618952
-27.1280898315642 130.742028465596 954.058909013218 0.964114 -0.214263 0.156765
-23.3747356155398 128.296575038568 934.559856789893 -0.660551 0.485985 -0.572269
-21.2344108593613 127.683096602315 929.309406613032 -0.676761 0.549799 -0.489608
-18.9642549381887 127.340725229188 926.057237911097 -0.779349 0.478216 -0.404877
-12.3146044435934 128.797257397489 916.326758303337 0.057728 0.180738 -0.981836
-7.27656619349008 129.065247063786 916.811939550456 0.324665 0.431599 -0.841615
-4.61146768388629 129.4079343804 918.548223008309 0.419377 0.010005 -0.907757
3.44890778337168 130.437693735433 923.750347401946 0.07336 -0.506909 0.858873
6.15739291860653 130.781512655507 925.482146873184 -0.058434 -0.419892 0.905691
14.8025532266765 132.372877515351 934.647274218503 0.42887 0.571556 -0.699567
20.2302598879732 127.686454170965 936.078756815806 -0.21383 -0.440832 0.871748
22.8875956472775 127.886894921099 936.809961877684 -0.336587 -0.293269 0.89482
31.9326614247804 129.565264662891 946.939392330811 -0.853087 -0.457532 0.250814
37.544605931864 132.830393252006 950.392566617915 -0.142075 0.758359 -0.636166
42.6271794610413 130.237595030397 948.851637356377 0.470693 0.480852 -0.73975
48.5771923206649 128.443304754692 953.256053913259 -0.465014 -0.410514 0.784373
54.2119530287618 128.975483604237 955.691191451678 0.399548 0.425414 -0.812025
57.1188054155518 129.308108936179 957.402427881828 0.475229 0.438668 -0.762711
60.5985681591454 132.804442375147 963.087733773667 -0.505182 -0.440679 0.74202
69.3508387617094 131.03959383737 967.202373338984 0.512959 0.49058 -0.704417
72.387483800584 128.72136207649 968.890160513265 0.722534 0.246948 -0.645725
77.589108499714 130.742180969949 983.439856987422 -0.984455 -0.026138 0.17368
-60.810326393677 134.064980961272 1030.94592151621 -0.945 0.211304 -0.24965
-58.3343451814003 132.973917533094 1021.63756813002 -0.863918 0.317468 -0.390973
-53.1114997643481 132.2113066491 1014.05698587462 -0.70818 0.395103 -0.585127
-47.9038630085952 134.564136360709 1009.50578677114 0.805285 -0.380126 0.454995
-45.4655066173672 133.840938100787 1003.21874732108 0.916819 -0.209352 0.340022
-38.2511720399041 134.735451122953 987.395665539552 0.857726 -0.332074 0.39247
-35.8776441709587 134.128055055297 982.121113934637 0.874572 -0.35115 0.334391
-33.7097097059123 133.113715492088 973.850261113985 0.884667 -0.363141 0.292392
-27.0586659230044 133.603060724432 956.073231581652 0.962754 -0.16982 0.210395
-23.2118384436283 133.92651836077 938.58566577122 -0.549707 0.249002 -0.797384
-20.973171458712 136.10390114354 935.346281311804 -0.709696 0.236952 -0.663465
-16.1892194571266 133.13446782686 930.818789010403 -0.490565 0.535963 -0.687088
-12.2681971475871 134.058237383925 918.35253570013 -0.006891 0.450372 -0.892814
-7.12762649432081 134.476401175577 919.833021573224 0.564003 0.546526 -0.61904
-1.8681148625754 135.039711267575 922.307095626592 0.245577 0.503546 -0.828332
3.62927872612822 135.893313960266 926.76834604051 0.156742 -0.497304 0.8533
6.55638698819868 136.537834757131 930.48935351788 0.269211 -0.448565 0.852241
15.1922484455365 135.485432809073 938.640103542187 -0.652142 -0.531144 0.540922
18.3145707577016 136.263449771574 943.346764846457 -0.588925 -0.484961 0.646514
24.0319556154237 137.109150766015 947.785227701339 -0.423719 -0.302481 0.853796
29.1062555615907 134.521592545063 946.24517413801 -0.613174 -0.598926 0.515078
37.4787060518735 135.422903085437 950.409185685109 0.137584 0.510512 -0.848792
43.1993827017605 136.118462149804 953.841396721283 0.42139 0.488054 -0.764352
48.9634459772786 136.815152817631 957.269123770842 0.396393 0.460852 -0.794033
52.0106554739542 137.304394604261 959.971776289399 -0.415132 -0.493035 0.764579
54.7708958784277 137.512975088918 960.692366833787 0.475779 0.467067 -0.745307
60.6887410108343 135.575801719787 964.094227237166 0.530312 0.441435 -0.723813
70.3729972675204 137.300849582294 974.157711116684 -0.57527 -0.398902 0.714102
73.5288812143304 137.784742113115 976.849101242624 0.716775 0.222544 -0.660838
78.6473593284414 137.078031248029 990.391743111549 -0.984455 -0.026138 0.17368
-60.7621439702287 137.375949027803 1034.9748298635 -0.999127 -0.025609 0.032994
-55.6953076258165 138.69786942763 1022.39154958319 -0.680077 0.445592 -0.582189
-50.4445397887629 138.031656688031 1015.81378689851 0.732136 -0.401372 0.550343
-47.8435608471536 137.697913791285 1012.52742779864 0.792555 -0.410007 0.451388
-45.4425876252897 136.823512723045 1005.23834026732 0.921705 -0.209344 0.32655
-38.2251999241612 140.500752323695 990.43080729932 -0.829854 0.363378 -0.423437
-35.8884958445642 136.924058448465 983.13815137078 -0.869004 0.325207 -0.372924
-33.4876049356332 139.23115552446 979.882475578947 0.883268 -0.327264 0.335762
-28.9899156318405 140.440220811819 968.36298943308 0.958658 0.036127 0.282259
-25.1051633679467 137.842704445237 948.849769403564 0.675547 0.254125 0.692139
-18.5020857728484 141.389737157489 936.115980627548 -0.546251 0.499334 -0.672514
-16.1557376780956 138.47694755702 932.846211664644 -0.603397 0.306074 -0.736363
-11.9635569587449 139.790275397757 923.369411262667 -0.976836 -0.100022 -0.189176
-6.91583591066014 137.414993332666 922.838253444629 0.514974 0.450752 -0.729126
-1.31571619529869 141.100490017106 929.310271208062 0.060956 0.652383 -0.755434
1.15956222486896 138.494246625749 928.039010899763 0.033734 0.530319 -0.847127
6.70270762654431 139.362682087881 932.495584454701 -0.234058 -0.695503 0.679332
15.4678716513032 138.474791958104 941.638923990147 -0.664114 -0.508824 0.547769
18.4817531646358 139.121575961889 945.350963494289 -0.545428 -0.255617 0.798228
26.9073717414287 140.193596278949 950.515463955182 -0.404498 -0.27017 0.873722
29.6105286090569 140.406143710371 951.241974682722 -0.584465 -0.216626 0.781968
35.033112328925 140.831662924511 952.69331464282 0.312989 0.183871 -0.931788
43.5553164003017 139.150834377617 956.832071824738 -0.451006 -0.480993 0.751824
49.3353724790224 139.858853749353 960.258187280757 -0.379893 -0.542491 0.749256
52.3236390670251 142.987161043662 962.976915200134 0.390311 0.548501 -0.739462
58.0868065201616 140.923004563444 965.388952989881 0.494317 0.501882 -0.709764
64.4543848690413 142.06429621514 971.771959381753 -0.558077 -0.348711 0.752961
70.237455558518 142.633078009414 974.191892920503 0.549403 0.323691 -0.770312
73.5607439608807 143.277020335238 977.871914118576 0.716775 0.222544 -0.660838
78.8506639517034 142.785022478646 992.402976068502 -0.867225 -0.111091 0.485366
-60.7562261732448 143.65123070082 1040.02466161089 0.953151 -0.183309 0.240627
-55.6609565761204 144.922062677905 1027.4382468071 -0.596432 0.535102 -0.598277
-50.3929962777974 141.189756736334 1018.83642595173 0.742462 -0.443023 0.502475
-47.8268274321548 140.710333932792 1014.54777347216 0.807456 -0.366163 0.462536
-43.0712614767668 141.767520114281 1000.99034898623 -0.906667 0.292798 -0.303684
-40.5496880601862 144.25799944998 998.728225780546 0.801519 -0.409435 0.43581
-35.6843241473508 143.10650024521 989.172466739359 0.879762 -0.321086 0.350604
-31.1645642715386 141.377810649434 975.628903017229 0.891579 -0.306446 0.333434
-26.9194073509691 142.10505500722 961.117688305852 0.911901 0.39442 -0.113444
-22.9695715463283 142.453215988661 944.624903504006 -0.703682 0.415308 -0.576498
-20.7249820031806 141.92175947394 940.369321069123 -0.658941 0.433834 -0.614479
-16.2035800568777 143.688901580625 933.876210027123 -0.567989 0.812978 -0.12828
-14.3522957789522 142.535364210559 925.637587790482 -0.843499 -0.136109 -0.519599
-9.42123152260105 145.176367247714 925.13746363787 0.335136 0.426678 -0.840018
-3.98521276538449 143.406668058618 928.589801267759 0.146254 0.44766 -0.882162
4.05197065655345 144.367431601218 932.788720345953 0.106904 -0.430949 0.896022
9.91580068332351 143.015927551712 939.214413710897 -0.822789 -0.370676 0.430833
12.8992995287167 143.683742283341 942.929675758715 -0.595594 -0.327079 0.733681
18.4015301553821 146.995111450559 946.394374568832 0.371886 0.372348 -0.850328
23.7135734678028 144.703298006605 946.841532316773 0.446598 0.20891 -0.870004
29.7326036092368 145.892784681834 953.260777584118 -0.442738 -0.440339 0.781079
38.0255407662292 146.699079386859 956.427311769968 0.434009 0.4781 -0.763581
43.9848064891588 144.967772039536 960.831009263473 -0.47728 -0.499492 0.722988
46.879980675314 145.332827528448 962.543576394594 -0.415895 -0.506913 0.75503
49.9319898420233 145.846745558887 965.245825693062 -0.393443 -0.519765 0.758319
55.3948377685047 143.493395886156 965.677150328379 0.419977 0.530748 -0.736156
64.7978988661203 147.826967913571 974.774242087963 -0.42353 -0.424208 0.800418
70.664802508653 145.738238110041 977.175455655902 0.560799 0.394395 -0.727982
73.9959487219126 146.393296964125 980.854706007923 0.775818 0.364073 -0.515323
78.7815764855094 145.502932367112 992.420399002248 0.907929 0.163938 -0.385732
-60.7685496691284 146.739274058447 1042.04829908612 -0.960796 0.185104 -0.206414
-58.2989669371849 148.48252070801 1033.75666729279 -0.885421 0.242525 -0.396498
-50.2911565722069 147.555026419693 1024.88201861466 0.727255 -0.389182 0.565365
-47.7511777627594 146.911053267934 1019.59010968038 0.844974 -0.321938 0.427054
-45.284041642058 146.123136144504 1013.29984833005 0.888111 -0.296095 0.351548
-40.4319775222167 150.405257900306 1003.76600874412 0.863364 -0.300821 0.405105
-35.5382496520214 149.205396360946 994.20713265482 0.864215 -0.237179 0.443711
-33.2167118485978 148.380947018005 987.931795054993 0.852358 -0.254316 0.456956
-28.7384033457513 149.371081644521 975.408142448893 0.953559 -0.243438 0.177377
-22.6643151738325 148.501899485545 950.64825613471 0.56394 -0.468538 0.680033
-18.1501909103635 150.107712408678 943.149944369216 -0.68387 0.458559 -0.56749
-16.0258539401899 146.686618974483 936.885189346405 -0.315037 0.48816 -0.813911
-11.8103861149219 147.937812589433 927.405745017845 -0.274381 0.424726 -0.862741
-6.50297953148268 151.227733012165 930.890516915569 0.550762 0.31135 -0.774418
-1.02371273933959 149.464617602834 934.338405509563 -0.180938 -0.369576 0.911414
4.1277303355795 149.754660345284 934.811938619337 0.054423 -0.391634 0.91851
6.97010982221232 150.295845591907 937.535976807706 0.254048 -0.187038 0.948934
15.8212105368086 152.239218020919 947.686474513731 0.566167 0.557686 -0.606993
21.4918876091893 150.418353349208 951.114343733009 -0.423965 -0.60554 0.67348
26.8340364081403 148.116413530021 951.558348838713 0.522486 0.308298 -0.79496
32.9618052778633 152.094111155321 958.982230677572 -0.474295 -0.511509 0.716522
38.7025121521118 152.855662137088 962.412619129074 -0.432062 -0.50745 0.745532
41.3805761064978 150.29854762906 962.125910413193 0.467127 0.478308 -0.743649
47.0995946851285 148.263246515064 964.542624418513 -0.432692 -0.486742 0.758854
50.1568192939848 148.785484260394 967.244365644734 -0.363698 -0.472713 0.802662
59.204357447975 152.866613825112 974.366593888193 -0.460165 -0.336273 0.821687
62.1670460552697 153.244341797042 976.072224691668 0.600214 0.420493 -0.680388
71.5182490925826 151.997627898047 983.142895683176 0.634918 0.484909 -0.60145
74.9337826217163 149.973366449104 986.803286261509 0.875707 0.261896 -0.405644
79.8361546605675 151.983265317297 999.373211320447 -0.984455 -0.026138 0.17368
-60.7058679018342 153.384689200626 1049.10434537499 -0.999127 -0.025609 0.032994
-58.3127672725443 154.658890324129 1037.8028212466 -0.84838 0.262899 -0.459494
-52.9623006672533 153.913441047726 1031.21444533124 0.745109 -0.295276 0.598017
-47.7626655862495 152.869058024939 1022.62985518066 0.867568 -0.224154 0.443938
-42.9395984832527 150.929854069052 1008.04877534785 -0.90729 0.207677 -0.365642
-38.0299479942382 155.443008073001 1000.52053930922 0.919349 -0.084185 0.38433
-35.7313342000898 154.432270401834 993.241525202643 -0.905728 0.12433 -0.405215
-33.2846905891557 151.055239496023 987.948938382982 0.912622 -0.126091 0.388872
-26.580459642538 153.935608409411 970.175446800993 0.986758 0.09364 0.132436
-24.6606534406133 155.189668518941 960.933495197957 0.867367 -0.494919 0.052241
-18.0594894611017 152.985666998161 945.162129796501 -0.621128 0.443842 -0.645914
-15.817140677152 155.124955272007 941.922220432884 -0.846804 0.529519 -0.050327
-11.7447250059907 155.984669593805 930.445407208544 0.115925 0.444348 -0.888322
-6.54018313991385 156.448148201094 931.919446707473 0.361728 0.357296 -0.861099
-3.77135089823277 154.31115617679 933.635623850434 0.319345 0.142092 -0.936925
1.57076711827553 154.933906601703 936.101377162293 0.096143 -0.25236 0.962845
10.4520259948735 157.099218680577 947.254937807256 -0.794723 -0.471717 0.381966
13.3008131072036 154.912482012639 948.962655692641 -0.568856 -0.573675 0.589322
19.2473997121242 156.176460300528 955.38967674831 -0.452107 -0.52987 0.717521
27.3223257977681 154.096024154599 956.557162266835 -0.389241 -0.530743 0.752863
30.1681356672704 154.481615294843 958.274913685776 -0.513899 -0.460198 0.723966
35.8922953754982 155.253646277924 961.707053533699 0.386252 0.50192 -0.773877
44.7001726754316 156.573157051874 967.838289394446 0.484877 0.441847 -0.754762
47.5379911605303 154.15679754613 968.540930170668 -0.386481 -0.47159 0.792613
50.4598662155914 154.538916816122 970.250799662315 0.409785 0.506579 -0.758587
56.0337487623502 154.990205347596 971.686585472141 0.389749 0.469168 -0.79245
65.7099576128111 156.925091272662 981.751695203529 -0.58363 -0.383988 0.715492
71.7795173442218 154.997330691946 985.137896604476 0.624743 0.440727 -0.644558
75.2990683723272 155.840266024292 989.803710788921 0.698002 0.341768 -0.629276
80.3780284346849 158.075923704023 1003.36156533197 -0.984455 -0.026138 0.17368
-55.6657552083878 157.231750301426 1035.52803311567 -0.721868 0.336317 -0.604813
-52.9919987452182 159.947351921716 1034.25636163657 0.734393 -0.31217 0.602675
-47.7749849539667 158.859775839779 1025.66981038525 0.8107 -0.263052 0.523039
-42.8373865356559 157.15308936158 1013.08844886732 0.875502 -0.252179 0.412192
-40.4173972803354 156.298473068587 1006.80281259329 0.890623 -0.23459 0.389561
-35.6872069626626 157.434493442892 995.258998483096 -0.90881 0.132793 -0.395513
-31.0132251075007 158.667445568041 984.726709143042 -0.921239 0.192014 -0.338303
-26.580256773679 156.723716438986 971.191310814403 0.917245 -0.325048 -0.230231
-24.5875385876559 158.118994432033 962.94769415206 0.82737 -0.546362 0.130185
-17.86669056055 161.516336666803 950.201156291031 -0.466253 0.517021 -0.717843
-13.9876307126371 159.118582336822 934.710654907615 -0.677061 0.224458 -0.700861
-11.7231151510893 158.677859614541 931.458697840217 0.09248 0.418754 -0.903378
-6.51328854751306 159.146931848568 932.932211791539 0.29704 0.496156 -0.815841
-0.895272601148008 160.293031052295 938.387433556834 0.262246 0.424142 -0.866793
1.60551952157311 157.643806777438 937.113371400307 0.264285 0.428475 -0.864038
7.33949920358947 161.507380089693 943.572214879434 0.287758 -0.714989 0.63717
16.594364392826 158.709676542126 955.673705943482 -0.67602 -0.227553 0.700869
19.3465340831481 161.711605057014 957.41103619949 0.482551 0.273644 -0.832024
27.8092292803508 160.130156542237 961.556325202154 -0.472013 -0.506433 0.721616
30.6083915144999 157.740067764994 962.263064220262 -0.56338 -0.466816 0.681678
36.0898003003836 158.199855991727 963.708448403084 0.392166 0.482954 -0.782918
45.053681036644 159.700942365039 970.829576135496 -0.578688 -0.473076 0.664319
45.2666244019141 162.680289487975 972.829499214218 -0.491631 -0.445093 0.748459
51.199007135126 160.811692673964 976.230115006612 -0.292258 -0.505722 0.811684
56.5030221185213 160.950031196927 975.681947642971 0.360581 0.426323 -0.829596
65.960240617338 159.929963342001 983.747852072202 -0.579187 -0.361059 0.730875
69.3778177332648 163.503590300983 988.434539557153 -0.640223 -0.326633 0.695288
75.565136294 158.864645062 991.798308490132 -0.672044 -0.360469 0.646853
80.988920379644 161.453398290437 1007.33251388511 -0.984455 -0.026138 0.17368
-55.6698176129755 163.452020228856 1039.57334567859 -0.778499 0.350851 -0.520425
-53.0257819026155 162.898247263087 1035.27635691237 -0.745302 0.315762 -0.587213
-45.2034795843846 164.316973439316 1024.4190821081 0.90242 -0.256573 0.346133
-42.8326043745344 163.111518469882 1016.12651287261 0.95054 -0.129727 0.282214
-37.9694989857592 164.376682241697 1005.57478084472 0.840264 -0.176562 0.512623
-33.2626090475343 162.565774221396 993.01689164188 -0.888898 0.271707 -0.368829
-30.8415584689014 164.827022875304 989.758957024786 0.894011 -0.241877 0.377146
-26.5134018103502 162.481900253513 974.22219641064 -0.942202 0.174872 -0.28579
-24.3726330594942 164.178767355881 967.975091708039 0.935928 -0.206003 0.28566
-19.8209446508306 165.567134847712 959.46672824988 0.67138 -0.408122 0.618616
-13.8860826069676 161.99681982717 936.721719338247 -0.725101 0.390055 -0.567526
-11.594672453019 164.254880752363 934.482527354914 -0.074073 0.541454 -0.837461
-6.3954011618796 162.022867602061 934.941577251831 0.283358 0.525116 -0.802472
-3.3727133397973 165.673681307245 940.674750750909 0.431444 0.737432 -0.519663
4.86122692071316 166.920743402478 945.859741777826 0.15407 -0.572946 0.804982
7.58836139046223 164.588789708977 946.5741517321 0.605915 -0.250114 0.755189
16.5750428528365 164.080592381195 956.701354886869 -0.541659 -0.263204 0.798329
19.3295777304994 167.096222062065 958.438492270513 0.609393 0.324873 -0.723255
28.1710062073758 166.048988148777 965.562652684483 -0.432067 -0.461475 0.774828
31.0406666909776 166.45702452119 967.278021663833 -0.394846 -0.505819 0.76697
36.4839786059274 164.124988477169 967.711447846172 -0.44376 -0.499851 0.743792
42.1458651004079 164.764262742057 970.144184182827 0.518369 0.439209 -0.73375
45.4792905857751 165.670540963522 974.82949219438 -0.489422 -0.413178 0.767952
53.9315279884571 163.711983043801 976.963749993697 0.315001 0.42351 -0.849361
56.9711867490564 166.953474456705 979.677589419559 0.301719 0.445553 -0.842881
66.14171333708 165.641840947194 985.761361973182 0.591162 0.328891 -0.73645
69.4709192804765 166.37323026956 989.441101635279 0.654918 0.34703 -0.671306
72.3970355145868 163.899160031371 990.134389980356 0.654017 0.348283 -0.671536
-55.640594419346 169.877944002447 1044.62133607913 0.800956 -0.353662 0.483108
-53.0195520136135 169.140608796606 1039.32068828152 -0.773243 0.377393 -0.509578
-47.7312291767295 168.150562462523 1031.7324726143 0.757274 -0.393857 0.520974
-42.8545014452402 166.021805389824 1017.14512502136 -0.93548 0.19814 -0.292605
-37.9853490700909 167.262575818695 1006.5926752169 -0.871947 0.339254 -0.35301
-35.5134698270437 169.552429133242 1003.3295906193 0.840854 -0.176422 0.511702
-30.8483034259958 167.674963393811 990.775765994439 0.896881 -0.192839 0.398017
-28.5042715479724 169.743057038864 986.519724903142 0.911149 -0.177516 0.371882
-24.2309809749944 167.314666542944 970.988325260634 -0.559591 0.339115 0.756213
-19.8037145656829 171.121966552935 961.496634978842 -0.704701 0.420325 -0.571597
-13.5003128728383 170.876624432409 943.752790637856 -0.672857 0.442103 -0.593135
-11.210560790146 170.403825179239 940.49810162367 0.178147 0.459296 -0.870236
