ply
format ascii 1.0
element vertex 925
property float x
property float y
property float z
element face 0
property list uchar int vertex_indices
end_header
-38.8163050468169 26.3043600368832 888.170788024736
-39.7914003116202 28.5346266406746 885.292720692594
-40.9620023448814 30.7008210583487 881.433483851925
-42.1291503785031 32.8454822923594 877.573665311758
-43.2928444124855 34.9686103427066 873.713265072094
-44.4530844468286 37.0702052093903 869.852283132933
-45.4135002131646 39.2089557826119 866.971743577927
-46.371325479771 41.3315564680859 864.090767748299
-46.9355467097321 43.5661516380469 863.171694661102
-46.9136793842746 45.9956550143176 865.196202811923
-46.5042525215408 48.5748359464866 869.183631679296
-45.7098566212603 51.3198443223013 875.134417537843
-44.1455226458861 54.3965075854074 885.011917378739
-42.0097796135605 57.7595950853933 897.835470680517
-39.8852620800631 61.1926654322854 910.660914505661
-39.1193616768073 64.1153225733239 916.616499385061
-38.934800579466 66.8134633805153 919.627703189633
-38.1779669252637 69.7926451286706 925.584815030213
-37.617503539429 72.7131379866243 930.56090278714
-37.0613576531435 75.6605473241574 935.537717668438
-36.8901808044049 78.4421292180448 938.551175558562
-36.7215944553957 81.2398609996798 941.565069723309
-37.3134476824719 83.6467216389488 940.65065023209
-37.7154068905042 86.1526458877883 940.718345511081
-38.1173660985365 88.6585701366276 940.786040790072
-38.3311582873447 91.2743245868693 941.836141689021
-38.1703434375241 94.120506031747 944.851344677637
-37.6375120488044 97.2132643590093 949.832086030542
-36.9221263902746 100.450844311126 955.796178265089
-36.5848017700128 103.479530452271 959.795750109466
-36.0649228799408 106.653038218271 964.778672835486
-35.5493614894179 109.85346246385 969.762322685877
-35.7786966766032 112.566116240577 970.815041232564
-35.6394693245288 115.546880083352 973.833879843037
-35.1342699329241 118.811903879921 978.81927479192
-34.4495385211937 122.240590837052 984.788529609505
-34.1368236483625 125.422700911799 988.7922460628
-33.8275627751704 128.626344170209 992.796544215593
-33.1566473619977 132.141163861994 998.768125831166
-33.2194030277049 135.098230238021 1000.80688561967
-33.8289580029327 137.615448443565 999.895447338374
-33.5313543785237 140.891766196839 1003.90170872697
-33.4180320237447 144.034028917091 1006.92491008367
-33.8484867288019 146.717601931154 1006.99740438352
-34.9987965141815 148.757288894805 1003.1347500583
-35.7865882596706 151.102768995914 1001.23923377099
-35.4980513843149 154.435611356305 1005.24702212077
-34.4982944277351 158.466172726268 1013.19141334435
-33.8619190109559 162.196324254688 1019.16881195489
-34.1197496951661 165.086626796639 1020.22632952243
-34.3784438792861 167.982312634506 1021.28399251484
-33.5763524409387 171.962260058141 1028.24757779208
-31.8977566497537 176.892414034519 1040.13402532225
-24.3012817190808 1.18376993143862 925.073695529752
-25.5211802126733 3.59046691422426 921.223642315428
-26.5321684478379 5.99438132195449 918.352280921952
-27.5405661832729 8.38214584193713 915.480483253852
-28.7509661778571 10.7296265696481 911.628830365911
-29.7537511638782 13.0823996661776 908.756087436128
-30.9576749091386 15.3895056745195 904.903343861629
-32.1581446547596 17.675078499198 901.050018587633
-33.1522946416822 19.9740186365688 898.175821409108
-34.1438541288753 22.2568088861917 895.301187955959
-34.9308208571895 24.5637330403389 893.40597344803
-36.3207721132671 26.7309642819656 888.570684293514
-37.3041283513167 28.9626132203878 885.69466930406
-38.6863081082057 31.0813947987716 880.858071325675
-39.8638951062158 33.2243102816794 877.000892292509
-41.0380281045867 35.3456925809238 873.143131559847
-42.0092953438983 37.5019753765238 870.265080622152
-42.9779720834806 39.6421082843762 867.386593409835
-44.3411548423529 41.6424573526109 862.546796084215
-45.3037870825662 43.7449071890521 859.667290897777
-46.0661440634499 45.8984074095967 857.76793178093
-46.6295210348688 48.1110329581185 856.848936870986
-46.9952132466877 50.3908587784912 856.910524305256
-46.5753474195655 52.971785461763 860.895313665628
-45.7670200725219 55.7301790560637 866.842431113422
-44.5728217052866 58.6821894491409 874.752312923262
-44.1659083768121 61.3438655711508 878.739283656748
-43.3731240281457 64.1991584919372 884.68901875228
-42.9739821988598 66.90928427719 888.677298309635
-42.1906963492017 69.8237934530511 894.628633078784
-42.186060539206 72.394135398686 896.655602522837
-41.4114096886464 75.3624775337059 902.608391540729
-41.0269473578278 78.1641193495285 906.599143320948
-41.0300830470206 80.7829109584064 908.627421588869
-41.4182262564954 83.2027024725918 908.692790069871
-41.8063694659702 85.6224939867773 908.758158550873
-42.0037359151237 88.1525521401406 909.805272775083
-42.0116208538208 90.8009518765558 911.834350879814
-41.2615797506917 93.9227179451784 917.791284506624
-40.3272381365652 97.1951253723471 924.7310545632
-40.1551400638138 100.021082946888 927.743696222067
-40.174250501339 102.739465530211 929.774664850164
-40.0069016780917 105.595031232289 932.78810634584
-39.8421433545742 108.466746822115 935.801984116139
-39.4926527701043 111.486412122531 939.798625603767
-38.7728341638198 114.796593548209 945.760649101178
-37.8717372962222 118.276257868139 952.706018015415
-37.534767460445 121.373980959335 956.70476816372
-36.8300601025828 124.77837006354 962.669336596432
-36.1305337441795 128.215058943241 968.634777578389
-35.4361883852353 131.684047598437 974.601091109592
-35.4842260697401 134.582770594941 976.636931470978
-34.7985157098944 138.105592209296 982.604699250924
-33.7511123273325 141.972762908071 990.539303289396
-33.2596327274475 145.406851066912 995.525907025631
-34.2330587165338 147.576592102301 992.648219650122
-35.2038942058907 149.730183249944 989.77009599999
-34.7184591053744 153.201954480195 994.757717710345
-33.6935067204685 157.209090872784 1002.69610279555
-33.2180018689155 160.742770006068 1007.68539689196
-34.0097178467341 163.079302287752 1005.79098222084
-34.6197238132845 165.582625815731 1004.87984025411
-33.9720074494719 169.342312450384 1010.85400672852
-32.4338745274265 174.049004530745 1021.74759064724
-30.9052401043891 178.814912866178 1032.64277423958
-30.9904082850173 181.945117587065 1034.68486787056
-31.077303465465 185.086088899782 1036.72725235129
-21.6966098921427 1.59822356001226 925.44639689171
-22.9273791000786 4.00586643965299 921.599055896824
-23.7385623086035 6.4303502283978 919.708360489631
-25.1709212671013 8.77843134228572 914.881315164592
-26.1845577260981 11.1487366611936 912.011060852121
-27.4023744353863 13.4756301020962 908.16153848412
-28.6167371450352 15.7809903593352 904.311434416622
-29.6217386049336 18.0974627190844 901.439725855408
-30.8296250652586 20.3624482569545 897.588531101353
-31.829013775743 22.6439291932503 894.715877278455
-32.6211999862514 24.949980471846 892.821982524027
-33.6158394472317 27.2018532806046 889.948528864321
-35.0153854091554 29.3453691496893 885.115957394059
-36.6139306219115 31.4131733652734 879.303245319021
-38.0044098347819 33.5001646272414 874.469146887579
-38.9856650471595 35.6685963493039 871.593439142321
-39.5602867587739 37.9346184192087 870.676558357871
-40.3356347210404 40.1356954274447 868.779827818393
-41.7127296853083 42.1392456027167 863.943475301399
-43.0855071500268 44.1158792984092 859.106395660034
-43.8530836131047 46.2685066434024 857.208356296687
-44.8187958271052 48.3400390389793 854.330030903692
-45.5824865405888 50.468441552351 852.431337128412
-46.1454510034204 52.6617891273915 851.512493108158
-46.7075519663421 54.8497534065162 850.593503663029
-46.4762464256638 57.3567141873903 853.595512911625
-46.4452353856827 59.7960382586378 855.617599692756
-46.0214068434959 62.4190854123815 859.600840232684
-45.9947133030639 64.8853259632084 861.623654138188
-45.3805205091432 67.6379177296113 866.588489531634
-45.3585762182155 70.1337664079755 868.612103273946
-45.1428136759144 72.7376265153354 871.616730170279
-45.3198686358191 75.157763540199 872.660203307816
-45.3031053443503 77.6859119940585 874.684689599373
-45.6765690553578 80.0141874776741 874.747585857512
-45.856214514992 82.4504743902854 875.791495269672
-46.036723474536 84.8921445988126 876.835550106706
-46.2180959339898 87.3391981032557 877.879750368614
-45.8227628888278 90.1398940222232 881.867789929394
-45.2387925917516 93.0809011456817 886.837715193441
-44.8507992958234 95.9273550799343 890.826990865653
-45.0399432544659 98.4228582476205 891.87249995143
-45.0391547113292 101.050597675923 893.899676603163
-44.8497289162784 103.818648308717 896.908738958162
-44.2830286173991 106.867321350494 901.881572719695
-44.0996473217172 109.673055054699 904.891653048815
-43.7297875238957 112.632558203185 908.883982643387
-43.7406562295419 115.332972126352 910.913122530923
-43.5650464330485 118.187155493799 913.924511683911
-43.2042533842803 121.203183249402 917.918368239663
-42.2848883290031 124.685902633763 924.859118016648
-41.9322985293785 127.753071700566 928.854356108707
-41.3966842272534 130.995543395314 933.832425165715
-40.3072471681236 134.734314846356 941.758187280764
-39.4103331105022 138.356999924529 948.702718104481
-39.6305630658989 141.046301745186 949.753462485733
-40.0364080235256 143.576450825648 949.821812176658
-39.1520147145971 147.277193694601 956.768451661053
-38.0897779026273 151.185538966994 964.698794659643
-37.768274099757 154.446506686768 968.699268047176
-38.3653468090273 156.852494450486 967.786168309457
-38.9615560183878 159.253098918287 966.872923146865
-38.6460967148865 162.551749709474 970.874414508518
-37.2437158952114 166.972199115231 980.774782183237
-36.7564575880378 170.516135381267 985.760995033207
-37.3587112967672 172.95442292048 984.848767844734
-37.779667502816 175.578779679468 984.91966247096
-37.4806146976017 178.979713093056 988.923916905225
-37.7237274006093 181.811672255484 989.978515045647
-37.609426097715 185.048069632959 993.000229364711
-37.6764222975011 188.098397790658 995.038821869077
-38.4582465090915 190.339849518263 993.143182016157
-39.4161872239032 192.362932250597 990.263547799292
-40.0167139328131 194.790453197978 989.351029761071
-40.2624171355502 197.638562248154 990.406064176115
-40.5089838381973 200.492054594245 991.461244016034
-40.7564140407543 203.350930236253 992.516569280827
-40.4776534834212 206.878371103863 996.524241199639
-40.9033589389743 209.53233599039 996.595935662673
-41.3290643945273 212.186300876916 996.667630125708
-19.298257823903 1.99930987589372 924.839970158197
-20.3283585052895 4.42213884063316 921.97314972472
-21.1451929459636 6.84844140178451 920.083846783464
-22.5910323599019 9.19703197475175 915.260173554614
-23.8227420332179 11.543712848215 911.413872393112
-24.8416172157765 13.8965589660481 908.545161436268
-26.0668506397687 16.2028651201423 904.697769588209
-27.2886300641214 18.487638090573 900.849796040652
-28.7150407300882 20.715104505433 896.02285075213
-29.5141734226106 23.0310495003089 894.130566600951
-30.3115791153133 25.3362279033532 892.237991600024
-31.5208377909734 27.5429430830036 888.387909391789
-32.7266424669941 29.7281250789907 884.537245484058
-34.3408461263328 31.7933106679205 878.728492669522
-35.5388793031649 33.9300430006647 874.876519937922
-36.7334584803577 36.0452421497453 871.023965506824
-37.3106899330692 38.3108277818745 870.107744599124
-38.09125737753 40.511031914559 868.212333813147
-39.2776333055792 42.575089752439 864.358397845743
-40.6638912257382 44.5522329072109 859.524690300566
-41.8429274045537 46.5705327298058 855.669518221731
-42.8160370918905 48.6380641640975 852.793099746549
-43.9885970213823 50.6159892673234 848.936836981157
-44.5528759754462 52.8008254607144 848.018434700342
-45.1162914296002 54.9802783581895 847.099886994652
-45.2773523998052 57.3174107341328 848.140446169887
-45.2389631278552 59.744149441142 850.160849635333
-45.0024188636152 62.268569423091 853.1613155283
-44.9679153412596 64.7195329617216 855.18237340568
-44.7361203265237 67.2735610712079 858.183639135456
-44.7055025537623 69.74874944146 860.20535142477
-44.6766117808207 72.2347044035438 862.227354563833
-44.8471712500339 74.6310530345618 863.269513412685
-45.2158857115372 76.9297203906401 863.331609834015
-45.1908806881899 79.4399001843454 865.354267385012
-45.3640306571326 81.852398703111 866.396862508487
-44.9500553984387 84.6036990619806 870.38088102596
-45.3217921096265 86.9212079537645 870.44348643435
-45.1081305929974 89.5882852774841 873.447806086487
-45.2864615613991 92.0330835717449 874.491273759208
-45.0771175443191 94.7270773750437 877.496320535716
-45.0642015197097 97.3126233115714 879.521014034954
-44.8596067521338 100.036225242408 882.52686064827
-44.8505764771186 102.645996010557 884.552208559442
-44.6507309590469 105.39920606893 887.558855009568
-44.4534759407047 108.168566015051 890.565937734316
-44.4504901650583 110.816019854611 892.592303619608
-44.6404783822431 113.333492643736 893.637734528133
-44.6405148562813 115.999788019003 895.664609400485
-44.642278330139 118.676849986099 897.691775122585
-44.45581706067 121.513501131169 900.700675658263
-44.461466284122 124.214787929888 902.728495792298
-44.2797542641571 127.081047202496 905.738196164784
-44.1006327439217 129.96345636285 908.748332811893
-43.547652236762 133.181193766897 913.722375360778
-43.3745752158954 136.101285998662 916.733529982008
-43.2040886947584 139.037528118175 919.74512087786
-43.2231221668132 141.822256003591 921.775195097447
-43.0573848951803 144.78810625064 924.787585830107
-42.7081721297248 147.943153803201 928.782511213154
-42.9193160947006 150.592517342265 929.831505031098
-43.1313235595862 153.247264177245 930.880644273917
-43.3441945243819 155.907394308141 931.92992894161
-43.0049120078894 159.124349763733 935.926526710711
-42.4851762472588 162.549344060542 940.906168117257
-42.5201844676456 165.4336629204 942.938932697019
-42.9230071755877 167.944970465155 943.006773400884
-43.1432178896169 170.650858611336 944.057294180009
-43.364292103556 173.362130053433 945.107960384008
-43.586229817405 176.078784791445 946.158772012882
-43.8090310311638 178.800822825374 947.20972906663
-44.2135807389256 181.322896961961 947.277860620243
-44.4376772025491 184.053009939762 948.329035811303
-44.8426586602658 186.577775724307 948.397240077354
-45.0680503737541 189.315963645983 949.448633405724
-45.1151475928789 192.275648648665 951.483433933726
-45.163971811823 195.246100243177 953.518525311477
-45.3928175249509 198.005821348517 954.570500339345
-45.4446639935794 200.995114478734 956.606100704156
-45.498237462028 203.995174200785 958.641991918715
-45.1995394412982 207.465144564423 962.645424656908
-45.2574304092959 210.492120766052 964.682042995839
-45.6693198662913 213.059952917924 964.751410660884
-46.0812093232869 215.627785069796 964.82077832593
-46.1425542909239 218.676294455089 966.857978364358
-46.5553072478293 221.249509902877 966.927491454278
-46.9680602047347 223.822725350665 966.997004544197
-16.0739660832005 -0.0492583254461749 926.120872200505
-16.8999057556632 2.40039619177517 924.233543424684
-18.1515528923759 4.80454756921018 920.3914814438
-18.9731750652894 7.22728560685211 918.503425543608
-20.4316314347583 9.5710023429829 913.682978986072
-21.4609263403376 11.9386890352365 910.816683934103
-22.6996209784027 14.2620909739334 906.972440580104
-23.7233031345681 16.5947862427337 904.105200266452
-24.7443947910041 18.9113316237865 901.237523678176
-25.9735909300609 21.1755173074088 897.39168065056
-27.1993330694782 23.4181698073675 893.545255923447
-28.2117897268157 25.6808822292615 890.676125086429
-29.4310556169093 27.8831600098513 886.828609672758
-30.8558354898942 30.0169282052629 882.002491545125
-32.0677616307541 32.1734479705677 878.153740020023
-33.2762337719747 34.308434552209 874.304406795423
-34.2735791808899 36.4769392955752 871.432731023104
-35.2683340900756 38.6292941511938 868.560618976162
-36.0536892667755 40.8259337603691 866.666455231249
-37.0436949264571 42.9486804884504 863.793543347498
-38.4430015521017 44.9236414543438 858.963135186073
-39.6324766953055 46.9401955258358 855.110602614239
-40.8184978388702 48.9352164136644 851.257488342907
-41.7964144998139 50.9825969989234 848.382540510916
-42.5675219280015 53.0904122254868 846.485977255577
-42.9293283902261 55.3460132142381 846.546910277912
-43.2911348524507 57.6016142029893 846.607843300248
-43.2470943483516 60.026534137592 848.626854299756
-43.0022891108653 62.5495717849103 851.625267850035
-42.9621343563606 64.9987165511344 853.644933261477
-42.7220783683784 67.5513623259898 856.644146648565
-42.6858093634679 70.0247319238354 858.664466471942
-42.6512673583772 72.5088681135127 860.685077145067
-42.8187853365383 74.9029615343485 861.726503404731
-43.3869692815641 77.0954362338376 860.808979137978
-43.3558812761127 79.6011056071784 862.8301715106
-43.326520270481 82.117541572351 864.851654732971
-43.1002802810563 84.7563200818605 867.853194918048
-43.0748050250189 87.2969808786545 869.875332552354
-43.0510567688012 89.8484082672802 871.897761036407
-43.2263462461509 92.2909513513589 872.940496119941
-43.2056202396176 94.8612202756897 874.963433591055
-43.3830684667421 97.3172215995584 876.006532236774
-43.3653647098933 99.9063320595953 878.029978694948
-43.3493879528641 102.506209111464 880.053716002871
-43.3351381956547 105.116852755165 882.077744160542
-43.3226154382649 107.738262990697 884.102063167962
-43.3118196806948 110.37043981806 886.126673025131
-43.4966076570528 112.872199157214 887.171007782281
-43.4888341491673 115.523217520284 889.19612662651
-43.6757808752998 118.038435099226 890.240824945847
-43.478468132855 120.857554021917 893.247236864213
-43.6680053587173 123.388921488608 894.292371458173
-43.8584060844894 125.925672251214 895.337651477007
-43.8584040757923 128.625140277527 897.364079145104
-43.6692945824909 131.495400511418 900.371872599776
-43.2923728544501 134.544527896765 904.361249978335
-43.488818079591 137.118961730782 905.407547971289
-43.4965875700825 139.866879420337 907.435284463255
-43.5060840603939 142.625563701724 909.46331180497
-43.3286318158754 145.56849843048 912.473068495446
-43.5302580404754 148.175232039993 913.520239037646
-43.9205599997248 150.608481793968 913.585971080833
-44.3108619589742 153.041731547943 913.651703124021
-44.1403177137345 156.027732644027 916.662623213491
-43.7858469833495 159.216825723185 920.655781638782
-43.6209154875239 162.237818242722 923.667646989935
-43.6442279763924 165.082635258762 925.698001129639
-44.0397109351009 167.548184788232 925.764605722072
-44.0656139236993 170.409151692021 927.795396136399
-44.2776021472176 173.080484852525 928.844311777091
-44.3065273855001 175.960293292018 930.875611178477
-44.7041690939833 178.439301061279 930.942579333097
-44.7356848319956 181.335259388521 932.974315009106
-44.951558805108 184.030817380645 934.023885061732
-45.1682962781303 186.731758668685 935.073600539233
-45.2041295156917 189.654633475506 937.106063339614
-45.241689753073 192.588274874159 939.138816989744
-45.2809769902738 195.532682864644 941.171861489622
-45.3219912272943 198.48785744696 943.205196839249
-45.3647324641347 201.453798621109 945.238823038625
-45.4092007007946 204.430506387088 947.272740087749
-45.6345731729153 207.185280634288 948.323909813993
-45.6820636592597 210.180829935973 950.358335850177
-45.7312811454238 213.187145829491 952.39305273611
-45.7822256314075 216.204228314839 954.428060471792
-46.0123473530323 218.988610689575 955.480030034844
-46.0663140887007 222.024534710631 957.515546757586
-44.5327272009843 227.310875308756 968.402624355348
-13.4532040597248 0.36512228182383 926.489541589523
-14.7183124105104 2.78636944386154 922.650628102701
-15.7636397885246 5.20388813398877 919.787694217288
-16.8063766668093 7.60525693636841 916.924324057252
-18.2774499918089 9.94409983566261 912.107104171031
-19.3141423707246 12.3077855666311 909.242716036875
-20.5628442232232 14.6267501062672 905.401039477441
-21.3797556293677 16.9867073653252 903.512630944694
-22.6224129824973 19.2679888335501 899.66993641114
-23.6483116125401 21.5643833655702 896.803730466055
-24.8844927163459 23.8052901144261 892.959945245943
-26.1172198205124 26.0246636796186 889.115578326334
-27.3464929250394 28.2225040611475 885.270629707228
-28.5723120299272 30.3988112590129 881.425099388624
-29.7946771351754 32.5535852732149 877.578987370523
-30.8028740170664 34.7396222389595 874.709800215515
-31.8084803992279 36.9095093169566 871.840176785884
-33.021347005468 39.0050670760839 867.992465094166
-34.0213406382154 41.1399627306277 865.121896402852
-35.0187437712333 43.2587084974239 862.250891436915
-36.2221118784651 45.2950500014766 858.401580071579
-37.8382734340344 47.1719662759582 852.59580133232
-39.0338700420776 49.159858116768 848.745181143116
-39.6042319782455 51.3492047305235 847.828244040676
-39.9669019403799 53.6101890151906 847.889322487886
-40.1231751783456 55.9508859146434 848.928634622057
-40.6922418646487 58.1321575845249 848.011479382305
-40.4383121540064 60.6484296012964 851.007695165022
-40.3920744173976 63.0930639471561 853.025895398089
-40.1428939562594 65.6389440914649 856.022911017615
-40.1005419692449 68.107803268946 858.041765662617
-39.8561107576108 70.6832915407921 861.039581118951
-40.0210189946748 73.0778213994036 862.080347501866
-39.9838480071193 75.57898035238 864.100074696113
-40.7584479176815 77.6751561115602 862.204540344526
-40.5209247053261 80.2937107507332 865.203519199855
-40.6892869420296 82.7097737930083 866.244867282266
-40.0536497798041 85.5792696923222 871.202785734382
-40.0246820413921 88.1315699564995 873.223894464935
-40.1977935275998 90.5772411263117 874.266042384155
-40.5716889885622 92.9082082578853 874.329011354731
-40.7460957246345 95.361954371571 875.371377411263
-40.9213659606167 97.8210837811732 876.413888892669
-40.8988744715286 100.413758764719 878.43608830978
-41.0763034572854 102.886346414111 879.478963353371
-41.0568342178818 105.497862933363 881.501671757542
-41.0390919782978 108.120146044447 883.524671011462
-41.0230767385335 110.753195747362 885.54796111513
-41.0087884985889 113.397012042109 887.571542068546
-40.996227258464 116.051594928688 889.595413871711
-41.3765989687501 118.42293677963 889.659473528845
-41.3666282283549 121.093669553957 891.683781606633
-41.5531239631649 123.622781810465 892.728183611405
-41.5461754724541 126.312356120497 894.753000676253
-41.3470780060869 129.170467427927 897.758450938489
-41.3440152649702 131.88426656958 899.783922415271
-41.5356919992395 134.445678601584 900.829196969289
-41.5356515078072 137.178319278942 902.855177433132
-41.5373380161948 139.921726548134 904.881448746723
-41.540751524402 142.675900409156 906.908010910063
-41.5458920324288 145.44084086201 908.934863923152
-41.9344669918586 147.863324024154 909.000305116591
-42.3230419512882 150.285807186296 909.06574631003
-42.5216266848363 152.890285585627 910.112184263042
-42.5315164423673 155.684834166019 912.139837112939
-42.1648797477744 158.864906404449 916.130065181481
-42.3677819808715 161.496301283359 917.177230258865
-42.0067580356923 164.711364945241 921.168403589089
-42.4005139945811 167.166147882879 921.234717331774
-42.2320707750132 170.215366195322 924.245330177047
-42.6271219837668 172.678224076835 924.311862057044
-42.276028287551 175.95519564175 928.304707773323
-42.6728064961243 178.428820115094 928.371530503068
-42.6982392520326 181.320268021972 930.401801000702
-43.0958809605156 183.799275791231 930.468769155322
-43.308713442576 186.492578573174 931.51760661876
-43.3380319480786 189.408251311673 933.548531528329
-43.5530231799136 192.115012333405 934.597732553954
-43.7688779116583 194.827156651053 935.647079004452
-43.8025139167101 197.769745869131 937.678731038393
-43.6552264449335 200.950854931513 940.692906793087
-43.8749669262728 203.687224080783 941.74290765552
-44.0955709075218 206.428976525968 942.793053942828
-44.3170383886805 209.176112267069 943.843345655009
-44.1775224160925 212.405670992694 946.858830233572
-44.2210886701075 215.410168113805 948.892154653568
-44.0863219470235 218.669334966966 951.90843906894
-44.1337739506328 221.698056919699 953.942417900869
-42.7493811379922 226.731836953347 963.839204146565
-10.8272225540549 0.780375764645266 926.856891225042
-12.5419385475518 3.1714698203965 921.069032534219
-13.5946633989024 5.58498754923865 918.208005566619
-14.4262927862494 8.00328818781984 916.322516460991
-16.1284880310536 10.3163244527909 910.53254910949
-17.3902193476702 12.6496931290717 906.69394833168
-18.6484966646473 14.9615286216891 902.854765854373
-19.2529860886216 17.3469290985982 901.943796636595
-20.5056506561848 19.6237731677624 898.103668897604
-21.538946759564 21.9161667384974 895.239369870333
-22.7851350778033 24.1526360882925 891.398151444785
-23.8128184317685 26.4100382355743 888.532907155831
-25.052530500684 28.6061328660004 884.690598043726
-26.2887885699601 30.780694312763 880.847707232123
-27.5215926395969 32.933722575862 877.004234721024
-28.7509427095942 35.0652176552976 873.160180510427
-29.7639465650921 37.2311037720096 870.292463998609
-30.7743599208604 39.3808400009739 867.424311212169
-31.7821827768991 41.5144263421905 864.555722151106
-32.5758181682129 43.6958619604733 862.663834351008
-33.7900569897881 45.733149361381 858.817235205111
-35.2115752768093 47.6795211178958 853.992771399254
-36.4184743491508 49.6710505035187 850.144936141925
-36.9923095263257 51.8653439754143 849.228804341109
-37.35584298837 54.1317115559973 849.290028213193
-37.5103699851484 56.4782281891416 850.328825895488
-37.8743351971476 58.7472874176826 850.39012248001
-37.8220144784346 61.1874113431778 852.406857534702
-37.9791319749425 63.5500778640698 853.44609149162
-37.5152745750218 66.1908746140567 857.419064853292
-37.6754143212142 68.5723826706541 858.45880779727
-37.4235856362437 71.1518719037854 861.454716335791
-37.3803316665841 73.6485204363973 863.472978351664
-37.5443571623708 76.0542533246162 864.513375707577
-37.9143668737389 78.3609956245683 864.575690266218
-37.8749986536737 80.8818689888017 866.594606694025
-38.2458718649516 83.1939945846697 866.657066677541
-38.0052686788091 85.8434666647072 869.654865739427
-37.7672559923961 88.5090886324924 872.653101075937
-37.9377577375066 90.9551962400803 873.694589118407
-38.109122982527 93.4066871435842 874.736222585752
-38.2813517274571 95.8635613430038 875.77800147797
-38.252777256265 98.4517259061857 877.798735716706
-38.4271647509698 100.922058345395 878.84087817111
-38.6024157455845 103.39777408052 879.883166050389
-38.5781587739414 106.012855123281 881.904627413496
-38.5556288021182 108.638702757874 883.926379626352
-38.5348258301147 111.275316984299 885.948422688957
-38.7148260742334 113.780640846962 886.991510405044
-38.6970453519144 116.436096609093 889.014062454709
-38.6809916294149 119.102318963054 891.036905354122
-38.666664906735 121.779307908847 893.060039103284
-38.6540651838751 124.467063446474 895.083463702195
-38.6431924608347 127.165585575931 897.107179150854
-38.634046737614 129.87487429722 899.131185449261
-38.8226819808312 132.434031119041 900.175727414092
-39.0121807239584 134.998571236779 901.220414803797
-39.0073525002867 137.734776437646 903.245148226576
-38.8094925596815 140.650721665519 906.250145819741
-39.0028770524029 143.239486614878 907.29548762138
-39.5849154787213 145.484921397975 906.380737356871
-39.7791634713525 148.079069643249 907.426224583384
-39.9742749638935 150.678601184439 908.471857234772
-39.7850500223868 153.648379371472 911.47830907668
-39.9827520146573 156.264060800409 912.524378002691
-39.6061081056308 159.4485704379 916.512039276668
-39.9981370646999 161.892586783707 916.578062169605
-39.8175471222915 164.916197929897 919.585968260256
-39.829988896817 167.760069049083 921.613610180521
-39.6541482039127 170.813288322811 924.622316107981
-40.0496311626212 173.278837852282 924.688920700415
-39.8776762193114 176.356281957632 927.698281039809
-40.0857402105001 179.03656293756 928.746095064312
-40.2946677015986 181.722227213405 929.794054513689
-40.504458692607 184.413274785165 930.84215938794
-40.9025321510451 186.894974202383 930.909200254996
-40.9266311743534 189.811519816433 932.938805411065
-41.1390126650912 192.518717275941 933.987346559939
-41.3522576557389 195.231298031364 935.036033133687
-41.3806741785964 198.174760124993 937.066365414127
-41.2255574835286 201.357178500703 940.078561538571
-41.4426882237707 204.093984087749 941.127902524253
-41.4762857460871 207.069745956872 943.159107353939
-41.8795402039842 209.583745149586 943.227020770242
-41.7321950081049 212.814613188538 946.240525718554
-41.7705417799257 215.819983185201 948.272530385049
-41.6279458335504 219.080459351689 951.28683517017
-41.305702418844 222.60411663188 955.283658211228
-39.168850822719 228.646535834846 969.102609889303
-8.86325143189879 1.15661924885245 924.297632739463
-10.1488059615063 3.57168326072651 920.463925554206
-11.2093600361483 5.98389167624151 917.604878216858
-11.8250942003181 8.42268867453361 916.696023124573
-13.3226966862436 10.7598588440287 911.885474718292
-14.5957304671585 13.0968650651225 908.049658872357
-16.0851297039403 15.3828939234168 903.23772892977
-16.9120483245182 17.7384137834139 901.351887191588
-18.1751518564699 20.0135121014753 897.514398959599
-19.4348013887821 22.2670772358731 893.676329028112
-20.6909969214549 24.4991091866075 889.837677397128
-21.7260777487565 26.7525103726042 886.974340025988
-22.7585680763285 28.9897616708533 884.110566380224
-24.005265109993 31.162577366513 880.270315075623
-25.4648735998854 33.2628825157095 875.453367974872
-26.488297178404 35.4436092068419 872.588067367928
-27.2936283012358 37.6645466689423 870.698590007889
-28.0972324242481 39.8747175392108 868.8088217981
-29.3283864595354 41.9506339083849 864.965952845761
-30.3418797890909 44.0694526964848 862.098979852763
-31.5665575750544 46.1049943462896 858.255020213867
-32.7877813613786 48.1190028124311 854.410478875473
-34.0055511480633 50.111478094909 850.565355837583
-34.7949075225631 52.2328245825657 848.673188117368
-35.1584409846073 54.4991921631487 848.734411989452
-35.3103582402886 56.8461452340688 849.772549794997
-35.4631389958797 59.1984816009047 850.810833025416
-35.4060305449276 61.6421700499093 852.826321039045
-35.5609700502933 64.0079646565349 853.86496783165
-35.2969946424823 66.5618467234138 856.858169615549
-35.2450671909892 69.0378349479137 858.874530178423
-34.7768153260489 71.7180605204146 862.845882007214
-34.729205374105 74.2209652244939 864.862969694461
-35.099646835428 76.5303991724039 864.925356965539
-35.6778187535197 78.7350227983554 864.010175891223
-35.6332310512603 81.2567690381402 866.027772565529
-36.0041042625382 83.5688946340083 866.090232549045
-35.5492366462005 86.3325612932051 870.063838463387
-35.7158334003491 88.771030394695 871.104448491796
-35.6777219474135 91.3331513538489 873.123135852659
-36.0516174083759 93.6641184854225 873.186104823235
-36.0160964551698 96.2423893323238 875.205228458722
-35.7780260446541 98.9577702766791 878.202792988849
-35.9502355482167 101.431230801622 879.244348278941
-35.9198955944698 104.041801424019 881.264344463673
-35.8912826405424 106.663138638247 883.284631498154
-35.6618472291252 109.432352541761 886.283650277025
-36.0413554395015 111.798311096788 886.347564509284
-36.420863649878 114.164269651815 886.411478741543
-36.3978634453646 116.820598289497 888.432711037707
-36.175767783181 119.635570208295 891.432965928009
-35.956262620727 122.466692014842 894.433657092934
-35.7393479580024 125.313963709136 897.434784532483
-36.1236054178829 127.7095303917 897.49949860155
-36.109671962423 130.422383636498 899.522257858894
-36.296129214498 132.984668544053 900.566212659412
-36.4834499664829 135.552336747524 901.610312884804
-36.4738340105722 138.292106471902 903.633799266519
-36.465945054481 141.042642788111 905.657576497984
-36.4597830982098 143.803945696153 907.681644579197
-37.0448630155801 146.051635689431 906.767626903875
-37.2369330170692 148.648912020439 907.812526966075
-37.2342250604372 151.431748112144 909.837176746786
-37.0380343955489 154.408218908419 912.841794383317
-37.2339901466322 157.029720071049 913.887348857452
-37.2364631894592 159.844855938249 915.912871187408
-37.6284921485284 162.288872284056 915.978894080345
-37.633555691085 165.120158039003 918.004852684924
-37.6403462334612 167.962210385782 920.031102139251
-37.4562445673107 171.014047324879 923.037755724023
-37.6591083176728 173.678614854836 924.084473597153
-37.4793241510716 176.757368273513 927.091854306296
-37.4934544426816 179.645178635577 929.119339872055
-37.7002039426379 182.333970997155 930.166712157119
-38.0982774010759 184.815670414373 930.233753024176
-38.3063221508972 187.512537719825 931.281343446551
-38.5152304006281 190.214788321193 932.3290792938
-38.7250021502689 192.922422218477 933.376960565924
-38.7469039410674 195.858682243783 935.405754955552
-38.7705327316856 198.805708860923 937.434840194929
-38.7958885221236 201.763502069893 939.464216284054
-39.0104095212687 204.500744094714 940.512897392987
-39.0387875613909 207.47737883939 942.542782469172
-39.2554673103105 210.228079104001 943.59182714029
-39.2868676001173 213.223555384382 945.622221203536
-39.3199948897439 216.229798256596 947.65290611653
-38.9842902609645 219.736359752183 951.646580663527
-38.0974965043512 224.006857422622 958.585103223715
-35.1881716958749 231.066790593029 976.321086745041
-6.45967988146487 1.55857844028533 923.68988625245
-7.53108542908259 3.98831907817875 920.833327532412
-8.37574428054751 6.42102385340469 918.950914208408
-9.21867613219271 8.84296203679889 917.068210034655
-10.9530517700721 11.1561443443773 911.286306629032
-12.2365245153753 13.4914048143682 907.453130290098
-13.7389724576427 15.7752514837839 902.644499731263
-14.5711105604149 18.1298984682296 900.759977746581
-15.8446530567549 20.4032510351881 896.925129021593
-16.8936076067167 22.6930259792689 894.064789254823
-18.6020782473007 24.844709409371 888.278523102971
-19.6445565479386 27.0941096340826 885.417092649645
-20.464605651973 29.3733904757062 883.530534716723
-21.7217416500259 31.544460420263 879.692922919122
-23.1943988454038 33.642583380581 874.879275202123
-24.6627385412324 35.7137898613196 870.064900360752
-25.4724256463487 37.9284711519526 868.176597329338
-26.0627058045457 40.1918745952031 867.263675805389
-26.8693706599775 42.3877143501306 865.374863786916
-28.1079414099688 44.4430434324962 861.534125354518
-29.3430581603207 46.4768393311982 857.692805222623
-30.3587679637535 48.5593573825178 854.826866598192
-31.5874084647817 50.5527785618508 850.98445577974
-32.5975055188005 52.6003051897172 848.117571893627
-33.1756966782598 54.7883424901455 847.202614421437
-33.1103464954289 57.2140622789959 849.216273694506
-32.8329291149126 59.7342622357488 852.20655058647
-32.7714646816761 62.1842068562208 854.220864271473
-32.9246579458546 64.555821196538 855.258996612202
-33.0787147099429 66.932818832771 856.297274377805
-33.0215677762556 69.4096799328223 858.312315187179
-32.966147842388 71.8973076247054 860.327646846302
-32.4900475127887 74.5954288360567 864.296795442715
-32.6497170262911 77.0074178957429 865.336018470001
-33.020590237569 79.3195434916109 865.398478453517
-33.1815550009361 81.739607495171 866.437919618115
-33.5528599621689 84.0544247389968 866.500452314068
-33.2970300793987 86.7092070936466 869.49436482789
-33.2524038944041 89.2641259844781 871.511514297942
-33.2095047092293 91.8298114671414 873.528954617742
-33.5838319201466 94.1634702466728 873.591996300755
-33.7508411828824 96.6212173216438 874.632455439473
-33.5049415490754 99.3379075793263 877.62804033935
-33.261632414998 102.070747724756 880.62406151385
-33.4329591772832 104.555411279307 881.665247776939
-33.1939675427549 107.315167904316 884.661996075811
-33.1627256063628 109.953527881843 886.681399631414
-33.3379381182424 112.462416268016 887.723240306438
-33.7183098285287 114.833758118958 887.787299963571
-33.690953641731 117.496342928108 889.807357931109
-33.4618922561659 120.318007456149 892.805778616035
-33.2354213703303 123.155821871938 895.804635575584
-33.2141096829016 125.856089752498 897.825711517242
-33.3966619440147 128.410736153955 898.868788303697
-33.7817829038052 130.811686132436 898.933647797639
-33.965630414783 133.374407477766 899.976942721406
-33.7486580279559 136.27143814863 902.977399354572
-33.7346860897607 139.017464044475 904.999711407662
-33.922419350333 141.604410221428 906.043660743364
-34.1110161108151 144.196739694296 907.087755503939
-34.4995910702447 146.619222856439 907.153196697378
-34.4908001315086 149.397548527779 909.176381299714
-34.6819873917203 152.006027888394 910.220912334913
-34.6762187026686 154.80319509544 912.244605924308
-35.0669524118731 157.239136497374 912.310410679933
-35.063774222551 160.052453592167 914.334540543951
-35.2588472323569 162.685157784404 915.379725991084
-35.0625988433657 165.711387557249 918.383672821234
-35.2602623529012 168.360241637233 919.42929454299
-35.263560412903 171.213933451397 921.454515093566
-35.2685854727244 174.07839185739 923.48002649389
-35.2753375323656 176.953616855217 925.505828743963
-35.6716839909839 179.424549680603 925.572578761271
-35.4875246007308 182.52614559627 928.578561539661
-35.6920961095449 185.218066043582 929.625346660412
-35.897531118269 187.91536978681 930.672277206036
-36.1038296269029 190.618056825953 931.719353176536
-36.1192166856424 193.547114782938 933.746609675352
-36.1363307442017 196.486939331754 935.774157023916
-35.9642603526864 199.663901390244 938.782175750547
-35.9852601608399 202.627950770682 940.810377511046
-35.8179390188286 205.834520956708 943.819196074485
-35.8428245765766 208.822795168768 945.848052246918
-36.2478060342933 211.347560953313 945.916256512969
-36.4640347918903 214.112155895488 946.965004869523
-36.3044851490677 217.367175744758 949.975132256831
-36.1475260059746 220.638345481776 952.985695918761
-34.4934977605717 225.90889791858 963.842793677828
-4.05610833103094 1.96053763171821 923.082139765436
-4.90814541446468 4.40582777118241 921.201409757118
-5.98522143559916 6.82080085595899 918.346467105146
-6.83337276943857 9.24186616380176 916.465082684893
-8.58340685390056 11.5524298447259 910.687138539772
-9.87731856359218 13.885944563614 906.85660170784
-11.3928152113451 16.1676090441511 902.051270532755
-12.4547799840573 18.4883744503999 899.193782945483
-13.5141542570399 20.792989968901 896.335859083587
-14.794681718129 23.0430636010931 892.503068166103
-16.0717551795786 25.2716040496218 888.669695549121
-17.3453746413889 27.4786113144869 884.835741232642
-18.1706432276175 29.757019280559 882.950503053221
-19.6602348780751 31.8771848836199 878.140809131907
-20.7023391528609 34.0741344838035 875.279976772525
-21.9630061160236 36.2003923099305 871.443841082932
-22.9994976413953 38.3623504866611 868.582063461867
-23.813108978841 40.5680839578689 866.694862046643
-24.8448512547087 42.7004340070621 863.832284588769
-26.0934292191335 44.7513256903669 859.994112950935
-27.3385531839189 46.7806841900081 856.155359613604
-28.3616604606881 48.8592012800425 853.291327906988
-29.3821772377277 50.9215684823294 850.426859925748
-30.6178027035049 52.8917107268961 846.5865069148
-30.7636369770822 55.2341533774516 847.62317954197
-30.9103347505692 57.5819793239231 848.659997594014
-30.6250881467616 60.1034885940032 851.648294855728
-30.5584042313309 62.5543060900265 853.66128878723
-30.4934473157198 65.0158901778816 855.67457356848
-30.6453260886659 67.3960158998484 856.712264169771
-30.5833914227393 69.876441523409 858.726057938081
-30.7374289454601 72.2700254851654 859.764112101558
-30.4647030903452 74.8695925460256 862.754518023949
-30.4079494238777 77.3823179450815 864.769184341505
-30.5658726961927 79.8001267384593 865.807892916916
-30.9371776574255 82.1149439822853 865.870425612869
-31.0963961796054 84.5408277195368 866.909352325591
-30.8331688234988 87.1996110354718 869.901357921599
-30.7837549062649 89.7580944498126 871.917260350587
-30.946859178039 92.2082030186857 872.956841475244
-31.1108269497229 94.6636948834746 873.996568024774
-30.8558028427599 97.3736195106106 876.989955157089
-31.0223611141733 99.8452612631468 878.030117981242
-30.9807186961281 102.452194340731 880.047329234099
-30.7321708384887 105.202493687235 883.041807052971
-30.486213480579 107.968942921488 886.036721146466
-30.6583845014065 110.475576097477 887.077829232303
-30.8314190221439 112.987592569383 888.119082743013
-31.212222482385 115.361626068284 888.183215112584
-31.3865522529871 117.881717484063 889.224686760606
-31.3557035838149 120.555941760595 891.243715824392
-30.9153615350038 123.543815054548 895.218005144579
-30.6836519256065 126.399088671413 898.2153187485
-30.8640261955775 128.956863158603 899.257808370642
-31.0452639654584 131.52002094171 900.300443417659
-31.4312484251586 133.926354216106 900.365448336476
-31.6137814449042 136.497586943086 901.408301520804
-31.5941582745599 139.241794066524 903.429221107956
-31.9814379841249 141.656202284794 903.494444164083
-31.9644053135101 144.41655929598 905.515800025858
-31.7473752025801 147.363348943414 908.515585852642
-31.7342282815598 150.147930786222 910.537596126351
-32.1245302408092 152.581180540197 910.603328169539
-32.1139738195183 155.381912270752 912.625774717871
-32.3051418383623 158.006977956891 913.670082150942
-32.2976076667558 160.826551223151 915.693037686335
-32.6900683757798 163.273259216916 915.759133291708
-32.6851247039029 166.108982370924 917.782525101723
-32.8801784723413 168.758272888685 918.827486946729
-32.8782570501489 171.6128375784 920.851387743804
-32.8780626277761 174.478168859945 922.875579390628
-32.6826200145922 177.559540905276 925.87900083927
-32.8828547824897 180.241131198532 926.924835233521
-32.691729668855 183.349419723442 929.928983806535
-32.8945549364819 186.047159904445 930.975254475409
-32.9029955132076 188.966324145149 933.000900370976
-33.3027959714652 191.458790154199 933.068232087781
-33.1194423570192 194.615528342352 936.073689484664
-33.1326321832489 197.564300710594 938.100135217039
-32.9540278183072 200.750647026285 941.10639245073
-33.1641928351678 203.494145222573 942.153899231036
-32.7972482786934 206.939598669375 946.14054966554
-32.8182096041119 209.93682070086 948.168304221784
-33.0326921205217 212.707235376728 949.216538126462
-33.2480381368414 215.483033348512 950.264917456014
-33.273316961809 218.507171859575 952.29339913663
-32.9193249039824 222.033374745116 956.282230944248
-30.6681149322748 228.064516207125 970.072667962002
-0.332211358184935 -0.0688631190779159 926.299600243179
-1.6525367805971 2.36249682315107 922.474393278422
-2.50979334622497 4.80691408706386 920.594983023605
-3.59469859065072 7.22057785851331 917.742020001883
-4.67701333534697 9.61809174221509 914.888620705539
-6.44227411643666 11.923345148527 909.114563108482
-7.74619304056179 14.2524224683544 905.286593071114
-9.27430664384531 16.5292131120549 900.484488567344
-10.3436688898939 18.8459775570186 897.628907897885
-11.4104406362129 21.1465921142347 894.772890953803
-12.7009753117355 23.3922283473661 890.942666830883
-13.7621343086406 25.657851481129 888.085704625118
-15.2716826638624 27.8189012626382 883.28047348655
-16.1017389823303 30.0937447052009 881.396482348192
-17.1546947300918 32.308226527763 878.538138606121
-18.2050599781238 34.5065584625775 875.679358589427
-19.4765976556298 36.6337621855596 871.845935119272
-20.968012512745 38.6817627528355 867.037650058344
-21.78641158243 40.8839317005339 865.151695684183
-23.0480190109727 42.9492275204835 861.316599827973
-24.0841365104923 45.0587350726861 858.455420300853
-25.3392676897112 47.0836561732665 854.619233758086
-26.3697724398169 49.1581723020159 851.757108969283
-26.9562053311548 51.3641782625983 850.843980237655
-27.9823925817112 53.4117779117683 847.98112832448
-27.9066034344919 55.8392434517216 849.992148090547
-28.0519867167467 58.1955807798427 851.028524403153
-27.7602061395125 60.7264743071237 854.015060171927
-27.9081799214967 63.0989615229922 855.051872759156
-28.0570172033908 65.4768320347767 856.088830771259
-28.2067179851948 67.8600858424771 857.125934208236
-28.3572822669086 70.2487229460933 858.163183070087
-28.5087100485322 72.6427433456255 859.200577356813
-28.6610013300657 75.0421470410734 860.238117068413
-28.3821732514791 77.6537900070925 863.226834210302
-28.3214953526821 80.1754632255736 865.240398911669
-28.0474165235998 82.81671431913 868.229915890367
-28.2053205545473 85.2511094380312 869.26840086365
-28.1498236552094 87.8050824320076 871.282838114264
-28.3098864359315 90.2529357906985 872.321686649732
-28.257411786278 92.8257503203804 874.336632887406
-28.2066641364442 95.4093314418942 876.351869974828
-27.9451060560545 98.1286403262307 879.343495614203
-27.6861384753944 100.864099098315 882.335557528201
-27.8531092553952 103.355018824333 883.375569462664
-28.2321857158168 105.718285731402 883.439410982486
-28.1896413151264 108.353008164116 885.456029606214
-28.3592025948569 110.860077777882 886.4964778153
-28.319680443851 113.513641746301 888.513605426088
-28.491400473356 116.034169599857 889.55441719736
-28.6639840027709 118.560080749328 890.595374393507
-28.4201276705329 121.389747199939 893.589981242805
-28.387081768851 124.083685887729 895.608199540151
-28.3557628669887 126.78839116735 897.626708687244
-28.5335273958626 129.346602092316 898.668538432637
-28.7121554246462 131.910196313198 899.710513602903
-28.8916469533399 134.479173829997 900.752634198044
-29.0720019819433 137.053534642711 901.794900218059
-29.0475910793597 139.801306289658 903.814572764148
-29.4353025388795 142.218406155885 903.879868532713
-29.4134821360256 144.982327690581 905.899977353424
-29.1890545517593 147.9331182993 908.897856262394
-29.1711198984996 150.721264665618 910.91861949504
-29.5618536077039 153.15720606755 910.984424250665
-28.9373926600718 156.514034599812 915.938715885399
-29.1276779376385 159.150303315559 916.982654291469
-29.5210021465724 161.602394605239 917.048895321717
-29.9143263555062 164.05448589492 917.115136351965
-29.7037147697973 167.091409238293 920.115342058924
-29.6965738654106 169.946846803558 922.137923102499
-29.6911599608437 172.813050960655 924.160794995822
-29.8874897377793 175.487002747814 925.205751376012
-29.8850980828967 178.372048440615 927.229132256395
-29.884433427834 181.26786072525 929.252803986527
-29.6867743407727 184.385533507361 932.255191066601
-30.0865747990305 186.877999516412 932.322522783406
-30.0906593934718 189.803419928583 934.346994350347
-30.0964709877327 192.739606932586 936.371756767036
-29.7100207178167 196.130281523376 940.354240733358
-29.9167124936702 198.868832861523 941.400942212039
-30.1242677694337 201.612767495587 942.447789115595
-30.3326865451071 204.362085425567 943.494781444026
-29.9561665241544 207.814667919389 947.478937796402
-29.7779361850647 211.053464859607 950.484596936148
-29.7967002779733 214.070401302349 952.511540725952
-30.2051357353294 216.616700270557 952.5803266915
-30.0329498956086 219.893180282187 955.587003805366
-29.8633545556173 223.185810181564 958.594117193855
-27.384226525966 229.479913693364 973.354976548731
2.31507982621679 0.347190217991312 926.661598152258
0.751034769836849 2.76445601458395 921.866646791408
-0.111441277985307 5.20800040294531 919.988556290092
-1.20417574570237 7.6203548610676 917.137572898621
-2.52587338344958 9.99344444507709 913.313478479685
-3.84411702155742 12.345000845423 909.488802361252
-5.38959682987576 14.6465257798244 904.690724365605
-6.70050071874991 16.9523241648854 900.864812135741
-8.23777727792472 19.202707788086 896.065352603788
-9.08255157759507 21.5358946101719 894.184280892547
-10.383525217506 23.7797850922004 890.356696276628
-11.2239820176271 26.0860554347069 888.474897441017
-12.5189111581692 28.2922628453243 884.646294850977
-13.8103862990719 30.4769370722781 880.81711056144
-15.0984074403352 32.6400781155685 876.987344572407
-16.1561701617036 34.8344090890978 874.130471473527
-16.9849697130418 37.0680049367401 872.246709402112
