ply
format ascii 1.0
element vertex 927
property float x
property float y
property float z
element face 0
property list uchar int vertex_indices
end_header
-48.2879264784234 202.890036725228 940.685697554869
-48.3867011603925 206.011357430657 942.518540935765
-47.8578074681839 209.807060969043 946.186871205893
-47.9643432939154 212.95452417311 948.019686344179
-48.0739835771515 216.112444376631 949.852490185421
-48.4997863906049 218.941015913265 950.767542109264
-49.2394233911474 221.432396033421 950.764850588492
-50.6020720796096 223.233707821436 948.926689124055
-51.6508865809832 225.37221102593 948.006271104234
-51.4583343927742 228.906536393887 950.756776026176
11.2295750937631 0.829682917607769 933.436365924134
7.06419441879677 2.23281925052389 925.181899626204
5.20126960514256 4.29870944486943 922.428684295311
3.34300147774576 6.34891414003249 919.675485909984
1.48939003660621 8.38343333601301 916.922304470223
-0.738650675570568 10.2761225567236 913.252281760422
-2.58217262981918 12.2766565044754 910.499137036055
-4.79857162635267 14.1301319772297 906.829156690169
-6.63200409371029 16.0966806767527 904.076048681196
-8.46077987481061 18.0475438770932 901.322957617788
-10.2848989696536 19.9827215782511 898.569883499947
-12.4787906492765 21.7603838049567 894.899985057632
-14.2928202572285 23.6615762578859 892.146947655184
-16.4750702212081 25.4000247366351 888.477091576785
-17.9069094143606 27.4169046661967 886.640923686988
-20.4496185906054 28.9664666721285 882.054277175247
-22.6140179239318 30.6447874040115 878.384486054851
-25.8815260965882 31.8296477136271 871.964244555121
-27.6621827863627 33.6184274224151 869.211328595898
-29.8064031459072 35.2287776578405 865.541610906289
-31.5769703487906 36.9835721183995 862.78873166246
-33.3428808654168 38.7226810797762 860.035869364197
-34.7382426828867 40.6166912657415 858.199834214669
-36.4956159413743 42.3270434786167 855.447002983278
-38.612672297751 43.8458949688109 851.777384142805
-40.7235197391179 45.343832460095 848.107787896421
-42.8281582654749 46.8208559524691 844.438214244126
-44.5645764358045 48.4606234190231 841.685459267782
-45.5738672665937 50.457249832302 840.76630775221
-45.5002282318347 53.0153071643058 842.597533185186
-44.3506443609135 56.1583236638083 847.179110148358
-44.2855425842929 58.7451377443133 849.010304514462
-44.2235452651773 61.3424088242734 850.841487583522
-44.8793619130873 63.5514499591436 850.839101082942
-45.1785999206131 65.96244881615 851.753490894399
-45.1235876308834 68.5832481448838 853.584648545109
-44.7166533870271 71.4216906949364 856.33256556229
-44.314375829428 74.2758187441715 859.080465633904
-43.9167549580862 77.1456322925891 861.828348759952
-44.2291869100079 79.6010733972792 862.742690558971
-44.1912491365553 82.2793862230156 864.573786075938
-44.5075616603581 84.7478985770245 865.488113753652
-44.475056687539 87.4445111518071 867.319189500792
-44.4456561722249 90.1515807260451 869.150253950888
-44.0705426177935 93.0972075205111 871.898055173365
-44.0481271318653 95.8278053435223 873.729094205112
-44.3760813713116 98.335531445488 874.64337951891
-44.7055878395103 100.848486047181 875.557659184186
-45.0366465364614 103.366669148601 876.471933200941
-45.3692574621648 105.890080749748 877.386201569173
-45.3592598062561 108.662506570579 879.217195412743
-45.3523666078526 111.445389390867 881.048177959268
-45.0059692853415 114.487743430291 883.795874684087
-44.6642286490881 117.545782968899 886.54355446334
-43.9860883462322 120.873750726101 890.207937123843
-43.6544371968698 123.965775512937 892.955580187702
-43.6669468578715 126.814014579817 894.786492127702
-43.6825609763785 129.672710646153 896.617392770657
-44.0392314477451 132.277163993077 897.531573586797
-44.0602783668853 135.154159808458 899.362454459925
-43.7480300769283 138.311540841888 902.110026917259
-44.1116855776808 140.939522437586 903.024182315049
-44.1420458693361 143.847889251333 904.855029297045
-44.1755106184959 146.766713064534 906.685864981996
-44.212079825161 149.695993877191 908.516689369903
-45.2493107734942 151.786733285564 907.597436180934
-45.9532465127302 154.157857911988 907.59487457617
-45.9952485200286 157.10543847369 909.42567919425
-45.7101642332397 160.354318252352 912.173152802447
-45.4297366327078 163.618883530196 914.920609465078
-45.4826042412733 166.603063589991 916.751374543503
-45.8664387158076 169.299015682146 917.665456510507
-45.924739125007 172.301495490989 919.496201819105
-46.3124541714223 175.010518832462 920.410269664803
-46.3761873812553 178.03129839035 922.240995203574
-46.443025048593 181.062534947693 924.071709445301
-46.8369490100183 183.792472288077 924.985754696911
-47.232425200196 186.527638128189 925.899794299998
-47.629453619126 189.268032468027 926.813828254564
-47.7063807733546 192.333254273599 928.644505780897
-47.7864123850883 195.408933078626 930.475172010186
-48.5097509837297 197.845413951642 930.472539798896
-48.913764432046 200.609336540255 931.386548335112
-49.3193301091146 203.378487628596 932.300551222807
-48.773129250217 207.150877862635 935.964453758932
-48.5501341135259 210.608897630397 938.711701426246
-48.3317956630921 214.082602897341 941.458932147993
-48.7490030558041 216.890967733637 942.372892671772
-49.1677626772687 219.704561069662 943.286847547028
-50.2158592268689 221.831899976128 942.367554818404
-51.262403547717 223.954010382867 941.448267738303
-51.0580351560554 227.474772147359 944.195447623351
-48.6773754047093 233.48630891067 953.358898097106
11.9195458133162 1.03588498162873 928.731748019973
9.27409872639436 2.88777772875645 924.150341040455
7.40401439554489 4.95154602738418 921.400467692021
5.92161144273166 7.12125210176193 919.566361159129
3.67781579261805 9.03202612709214 915.900771831852
1.44022905751427 10.9218861535123 912.235205098663
-0.0297560652794004 13.04976423007 910.401143753948
-2.25647719911609 14.9030247583977 906.735616560413
-3.71870117814746 17.0047603363179 904.901583458308
-6.31292471623846 18.684112592438 900.32036288002
-8.52179521942202 20.4772453738994 896.654900644489
-10.3476410308266 22.3920014302933 893.905188278934
-12.1688301559739 24.2910719875046 891.155492858946
-14.3606261428804 26.0266912719635 887.490092757159
-16.1717257811368 27.8917765809461 884.740434052564
-18.3518800524 29.5881821174486 881.075076314692
-20.5258254086534 31.2636736550411 877.409741170909
-24.5543573024555 32.1271373285985 869.165876969608
-26.3406212806726 33.9085666419411 866.416308641367
-28.1222285726324 35.6743104561012 863.666757258692
-29.5293484309519 37.590434293695 861.83292467912
-31.3024184647733 39.3274213593538 859.083404363317
-33.4391103309678 40.8774289034862 855.418204784063
-34.8345884736439 42.7543389931238 853.584414568408
-36.9604147385713 44.2677470391637 849.919254528809
-39.080032088489 45.7602410862937 846.254117083298
-40.8282664622711 47.4135721563124 843.504687143848
-42.5718441497959 49.0512177271486 840.755274149963
-43.5835214863169 51.0471368418549 839.837236628545
-43.8679551580914 53.4170149996139 840.750557634025
-43.0677322477559 56.3687457208617 844.410893835766
-42.9963052309195 58.9517458987846 846.239865862086
-42.5674652967195 61.7426395971436 848.984494557766
-42.8627645697612 64.1491172529951 849.897776023592
-43.1596160715553 66.5608234085741 850.811051840896
-43.8162088338415 68.772478793308 850.808662516056
-44.1153886787642 71.1920276984783 851.721929860576
-43.702847146465 74.0378206439761 854.466499246775
-43.2949623004232 76.8992990886566 857.211051687408
-43.2468187148735 79.5607267624918 859.039938985896
-42.84747112697 82.4509619556735 861.784460359658
-42.8063125708064 85.1359178782826 863.613322239797
-42.4155022410415 88.0549098199655 866.357812546687
-42.7333088309936 90.5372007218658 867.271012108942
-42.7014636473446 93.2535276428398 869.099840097949
-43.0231508091779 95.7488897940591 870.013025538899
-43.6960419733649 98.015444425932 870.010576904577
-43.6711818191018 100.755299595679 871.839379475234
-43.6494261223436 103.505611764882 873.668170748847
-43.6307748830905 106.26638093354 875.496950725416
-43.2686807852459 109.282100120182 878.241336534647
-43.2570145753789 112.066397537614 880.070091092867
-43.2484528230165 114.8611519545 881.898834354042
-43.5872145011267 117.414027602722 882.81195766125
-43.5840855493981 120.227081768655 884.640681152598
-43.2413943109592 123.308157201891 887.384996355303
-42.9033597587776 126.404918134309 890.129294612442
-42.9110964083158 129.254571798334 891.957978564136
-43.2622759164459 131.849275444376 892.871056683167
-43.2754453666177 134.717228857447 894.699720865033
-43.2917192742948 137.595639269974 896.528373749855
-43.3110976394766 140.484506681956 898.357015337633
-43.3335804621632 143.383831093392 900.185645628367
-43.0227099131495 146.572090771042 902.929845036369
-43.7235411948805 148.932758398009 902.927294728649
-44.4243724766115 151.293426024977 902.924744420929
-45.4593332444193 153.367772635596 902.006622171679
-45.1593282966727 156.592631811338 904.750782040027
-44.8639800351834 159.833176486263 907.494924962809
-44.9050896028996 162.795242894429 909.323487471278
-44.9493036281204 165.767766302051 911.152038682702
-45.3268710250421 168.451354443461 912.065020776858
-45.0470450510772 171.744184115659 914.809107214419
-45.4292691342559 174.443457756251 915.722072363008
-45.4851248751204 177.455194911829 917.550581210517
-46.1983739868712 179.857690536617 917.547985714621
-46.2588864139927 182.885113191377 919.376477616563
-46.6480955265577 185.607915080743 920.289417346803
-46.7140407543131 188.65363748455 922.117889478919
-47.107130438759 191.389510623234 923.030815087853
-47.1785084671477 194.453532776087 924.859267450141
-47.5754787234748 197.20247716409 925.772178937771
-48.2957128646115 199.628501037651 925.769558023525
-49.0159470057483 202.054524911213 925.766937109279
-48.775702864971 205.480681326464 928.510879509527
-47.9013487845942 209.594506768418 933.085841525349
-47.3533630465317 213.395868695384 936.745259842252
-47.7650794760072 216.194483830799 937.658117668922
-48.4954031040348 218.65449295259 937.655460039282
-49.2257267320623 221.114502074379 937.652802409643
-49.6405476190428 223.923574209249 938.565648939268
-49.4274674814333 227.441229369731 941.30949249038
-47.0213904440172 233.45461061904 950.461808671126
13.7536431089333 1.57989212881044 926.779975114853
11.4840030339919 3.54273620698902 923.118782454706
9.60675918594723 5.60438260989893 920.372251088731
8.1195832216705 7.77267408713146 918.540372544145
5.48160646549547 9.55567409480237 913.964606141919
3.23524982184091 11.4400906770684 910.303498209604
1.76126780196006 13.5639399066171 908.471667677455
-0.0919165004217462 15.5445445637507 905.725223863573
-1.94044411654608 17.5094637217019 902.978796995257
-4.16506955766636 19.3206813077828 899.317768142251
-6.00350768689981 21.2516152175052 896.571377989328
-8.21649141237668 23.0236190556299 892.910391500237
-10.4232662228438 24.7747088948445 889.249427605235
-13.0014821720495 26.3564116630065 884.673878671109
-14.8181890987486 28.2141465765438 881.927567597495
-17.3824349891822 29.7487928471583 877.352069500068
-19.5635980252339 31.4136124408692 873.69119880568
-22.1130977425192 32.8985879640724 869.115754369212
-23.9072973523079 34.6805096315609 866.369525199169
-26.0698336433302 36.2825872285418 862.708722287046
-27.4817265131131 38.1972964689903 860.877117695781
-30.0048383416068 39.5933874968261 856.301769284188
-31.7788589776136 41.307338667857 853.555613544932
-33.548222927363 43.0056043397054 850.809474751242
-34.9438173952453 44.8654143330153 848.977929469459
-37.0729807680898 46.3550791858548 845.317248000561
-38.4608140922098 48.1887466805271 843.485730961388
-40.2123274113061 49.8268846055092 840.739657125702
-41.227167367935 51.8247106715067 839.822730774175
-41.509990648354 54.197910377702 840.734934961241
-41.0654539388203 56.9621692232776 843.476252741335
-40.6255739155441 59.7421135680359 846.217553575862
-40.5532544591252 62.3395995924226 848.04428349257
-40.4840394602113 64.9475426162644 849.871002112234
-40.7792805706498 67.3625703202797 850.783161111124
-41.0760739098408 69.7828265240225 851.695314461491
-41.7342189008795 71.9997104084839 851.692919488128
-41.6743172744802 74.6390244306907 853.51960421666
-41.2592729112432 77.5026247710889 856.260814674834
-40.8488852342634 80.3819106106696 859.002008187441
-40.7998492091313 83.057824130969 860.828653376318
-40.39799879029 85.965866719051 863.569815822054
-40.0008050577061 88.8895948063154 866.310961322224
-40.3170012563029 91.3752072566524 867.223044066065
-40.9883401917372 93.6365333887971 867.220601080265
-41.3068647334626 96.1299885887254 868.132675351323
-41.2749032246074 98.863415606027 869.959258406457
-41.2460461732572 101.607299622784 871.785830164547
-41.2202935794118 104.361640638996 873.612390625593
-41.1976454430713 107.126438654663 875.438939789595
-40.8291679424076 110.146893986886 878.179980792106
-40.8135048354534 112.935220251327 880.006504537758
-41.1483277790792 115.483574698393 880.918519499335
-41.8313084301572 117.784114578495 880.916034149619
-42.1684597169119 120.340311775152 881.828040638412
-42.1621099824721 123.160009037958 883.654530492932
-41.8145875699665 126.251049116502 886.395495240395
-41.4717218437186 129.35777469423 889.136443042292
-41.4762377105459 132.214071455128 890.962893357157
-41.8258068273202 134.812096649606 891.874854657774
-41.8357554947811 137.68669315955 893.701285202812
-42.1892051834365 140.297789603347 894.613232382123
-41.8649662022178 143.467257177804 897.354112401755
-41.8842282421935 146.373224686114 899.180509055661
-42.2446629602348 149.007849378684 900.092430816623
-43.2812341193982 151.078874440867 899.175425385787
-43.6432210661921 153.718727633165 900.087341498227
-43.6710203643062 156.653451889975 901.913707085261
-43.3669603568694 159.89088996089 904.654513674106
-43.4017446843693 162.849142466474 906.48085384279
-43.4396334693745 165.817851971514 908.307182714431
-43.8132621318118 168.496918911769 909.219056462955
-43.1928651063482 172.089355794062 912.87424756839
-42.9097601870694 175.397378611298 915.614977902187
-43.6222331844438 177.797259986222 915.612385230551
-44.6642371442407 179.886584797451 914.695360029888
-45.0471791791924 182.59702273607 915.60719988728
-45.1036947092269 185.628474237839 917.433460976656
-44.8361120774728 188.988782052351 920.174134825231
-44.8996126368933 192.043761802894 922.000370496257
-45.6175184349011 194.461942926864 921.997758054795
-46.0105499567442 197.206366113713 922.909561196793
-46.7292318691282 199.627161487546 922.906945931069
-47.4479137815123 202.04795686138 922.904330665345
-47.1989578947873 205.471006672621 925.644936731656
-46.9546586943198 208.909741983045 928.385525852401
-46.3940224758256 212.703476104848 932.040499489735
-46.8002479420643 215.492341539379 932.952254619296
-47.527467112587 217.941893661715 932.949608286701
-47.6173555607991 221.085757907625 934.775747932851
-47.3924592197372 224.589849464643 937.51626644707
-46.537993300127 228.814395643874 942.085542697424
-42.8442553620395 236.260073624153 954.884251354477
15.5829673930868 2.12248467884696 924.830430198039
13.3045574095947 4.07988531287135 921.173696338765
11.8095039763496 6.25721919241369 919.344034485442
9.92975729736696 8.30105820042328 916.600862047492
7.66764571577556 10.2035595873089 912.944187497701
5.79798852368396 12.2134133470897 910.201051775145
3.54751865773596 14.076700986019 906.544419589269
2.07264419827266 16.1860643691038 904.714831166732
-0.55087719776941 17.8766433885441 900.144730760147
-2.78349643306422 19.6798032806072 896.488163532275
-4.62754185074044 21.6033867948842 893.745121010334
-6.46693058215936 23.5112848099787 891.002095433959
-8.30166262732087 25.4034973258907 888.25908680315
-10.5117745457052 27.130843971905 884.602601478848
-12.7156775490797 28.8372766190091 880.946138748635
-14.9133716374444 30.5227952672034 877.289698612509
-17.1048568107993 32.1873999164876 873.633281070473
-19.6670651711195 33.6714531966915 869.063403780509
-21.8453564000786 35.2916155982919 865.40703425091
-24.0174387140279 36.8908640009824 861.7506873154
-25.4341045952743 38.8041586442858 859.921310712441
-27.9691489524268 40.1967131792584 855.351532271614
-29.7503291056288 41.9085424545715 852.608718514817
-31.8991279882914 43.4293633613494 848.952456307137
-32.9272200519192 45.4630816268668 848.036604410109
-35.0659294476908 46.9499172854159 844.380378917823
-36.4585357832742 48.782170182943 842.551089866957
-37.8480376613527 50.6039660810151 840.721812113134
-38.4976453942529 52.7920932169752 840.719448206643
-38.4120156682321 55.3622370900059 842.543981201917
-37.9626477846319 58.1364605808906 845.281948526767
-37.5179365872891 60.9263695709579 848.019898906052
-37.8084628488672 63.3342618239545 848.930952383572
-37.3715127952866 66.1503133126593 851.668874520246
-37.3029575855427 68.7779706826925 853.493345381777
-37.6004688765069 71.209391184463 854.404373440947
-38.2617183250505 73.4367320683794 854.40196717054
-38.5615579591433 75.8759953197411 855.312986756927
-38.5023161219142 78.5350236881394 857.137423727325
-38.4461787421899 81.2045090559926 858.96184940068
-38.3931458199705 83.8844514233009 860.786263776989
-37.9849119983102 86.7972301569644 863.524081416005
-37.5813348629073 89.7256943898105 866.261882109454
-37.8959206701483 92.214628388583 867.172848034882
-38.5680357199591 94.4785687705923 867.17040222482
-38.529748970888 97.208181885312 868.99476294017
-38.1401418942572 100.183702615706 871.732512796921
-37.7551915038835 103.174908845281 874.470245708105
-37.7277703560795 105.941121458094 876.294566883801
-38.0555501077165 108.47449770455 877.205484796791
-37.6822414329864 111.504917682083 879.943175344059
-38.0146778708808 114.053979427723 880.854076311483
-38.3486665375275 116.608269673089 881.764971630384
-39.73118338622 118.406537322387 879.935719294911
-40.0659481672429 120.963441817618 880.846611789552
-40.0548254213397 123.784553677569 882.670873655765
-39.7001434916389 126.877715651831 885.408496420769
-39.0042307212692 130.250770489996 889.05947161178
-38.6596382784596 133.377917712488 891.79705766139
-39.0083731182544 135.981878705265 892.707899319332
-39.3586601868018 138.591068197771 893.618735328752
-39.3677164146805 141.480150554179 895.442923764178
-39.7218840551091 144.102411296004 896.353745652292
-40.0776039242901 146.729900537556 897.264561891885
-40.4348760222235 149.362618278835 898.175372482955
-40.7937003489096 152.000564519842 899.086177425503
-40.8151744068077 154.93147487407 900.910320672753
-41.177879305375 157.582492364396 901.821111493996
-41.2047861639068 160.531702467671 903.645234971418
-41.2347974799432 163.4913695704 905.469347151797
-40.9321152134497 166.759686285535 908.206780691311
-40.9691115588724 169.742881637038 910.03086745334
-40.674966550517 173.039955100672 912.768269925983
-41.0524176222323 175.740643338409 913.679007086266
-41.7641145052307 178.13791046347 913.676417238891
-42.8077288563829 180.223913726262 912.760508856642
-42.8563669174488 183.246322825721 914.584553254756
-42.5777441966183 186.595681286632 917.321899242177
-42.6333672870704 189.641618634866 919.145918221942
-43.0209078456767 192.376292120831 920.056618666831
-43.4100006330353 195.116194106524 920.967313463199
-43.8006456491466 197.861324591945 921.878002611044
-44.1928428940103 200.611683577093 922.788686110367
-44.5865923676262 203.367271061969 923.699363961169
-44.3320291924584 206.797671268655 926.436622396498
-44.4062790279398 209.906350613619 928.260573593997
-44.1602531109106 213.365507568806 930.997800962455
-44.5640920714176 216.155080301911 931.908442097863
-44.9694832606768 218.949881534742 932.819077584749
-44.7343229449148 222.445637988023 935.556265413552
-44.5038193154101 225.957079940486 938.29343629679
-42.0414749052205 231.955850412745 947.423503661346
22.8472168046614 1.59709681252068 933.834764398504
18.5850563220851 3.0113698949155 925.62036235043
15.903811649187 4.85265316345415 921.055665283208
13.6212884434015 6.78892485414185 917.403407170374
12.125342570574 8.95177288722022 915.575987426662
9.85368496605565 10.8514450798154 911.923768853483
7.9768682567688 12.8591769438784 909.183975113386
5.71685236789381 14.7196353885173 905.531798904123
3.85012514549783 16.6933820043515 902.79204187942
1.60175097226625 18.5146267010342 899.139908034072
-0.254886763238801 20.4543880686396 896.400187724762
-2.10686781248654 22.3784639370626 893.660484361019
-3.95419217547686 24.286854306303 890.920797942842
-6.56325821138597 25.8850123375127 886.356363531897
-9.16456310353294 27.457027870085 881.791957363563
-10.6131659994107 29.4604066614745 879.964709899774
-12.439535274243 31.2982122843937 877.225099736645
-14.2612478628179 33.1203324081302 874.485506519083
-17.2162595882564 34.4457330264559 869.008825203501
-19.026330461188 36.2286394022362 866.269274349854
-21.2095110268166 37.8302871103637 862.617377742433
-23.3864826774355 39.4110208195812 858.965503729101
-26.3096737134488 40.6292371934929 853.488938208222
-27.721799233644 42.5097462412861 851.661823484702
-29.5054822177839 44.2037681216989 848.92236865593
-30.9106227085931 46.0607489207183 847.095279350759
-33.0588781272917 47.544755384977 843.443509835086
-34.0839238960177 49.5594666028755 842.528791702038
-35.478974899936 51.3824621536662 840.701739112261
-35.3877960480754 53.9514063739783 842.524046943489
-35.2997216537198 56.5308075937455 844.346343477673
-34.8455225960531 59.3149957299393 847.080960347282
-34.3959802246436 62.1148693653156 849.815560271324
-35.4218021077459 64.1321948330779 848.900839314015
-34.9784686513462 66.9529824673641 851.635416643969
-34.5397918812039 69.789455600833 854.369977028357
-34.1057717973191 72.6416142334843 857.104520467178
-35.1346981379262 74.6693967007016 856.189788212825
-35.434479609416 77.1172100002272 857.099685332276
-35.372793103852 79.7854957153619 858.921885841585
-35.3142110557928 82.4642384299516 860.74407505385
-35.2587334652387 85.1534381439963 862.56625296907
-35.2063603321894 87.8530948574961 864.388419587247
-35.5170074049463 90.3375076551142 865.298277167043
-35.4700670725304 93.0554641176598 867.120424015392
-35.7845947171685 95.5529481645969 868.030267473883
-35.3854997802137 98.5227480411168 870.764683820958
-34.63425023872 101.744391331612 874.411369666758
-34.6012799650763 104.509404291705 876.233465678408
-34.5714141489374 107.284874251254 878.055550393015
-35.2536186856389 109.582799881491 878.05306786756
-35.5821163890492 112.127340425976 878.962860489352
-35.9121663212119 114.677109470188 879.872647462622
-36.2437684821269 117.232107014127 880.782428787371
-36.5769228717942 119.792333057794 881.692204463597
-36.911629490214 122.357787601188 882.601974491301
-36.8980620759761 125.188156807876 884.423999896426
-36.5385489722088 128.291283427447 887.158272206187
-36.1836925546987 131.410095546201 889.892527570382
-36.1809907417279 134.277064250981 891.714513435852
-36.5281151901672 136.884346792195 892.62423827538
-36.8767918673593 139.496857833137 893.533957466385
-36.8818511981506 142.389969036555 895.355915089244
-37.2344084472238 145.015551326816 896.265620158945
-37.9321352714497 147.365761954328 896.263081148269
-37.944179631627 150.282401406519 898.085013352779
-37.9593284493093 153.209497858165 899.906934260245
-38.3188707277684 155.858608397199 900.816613911595
-38.67996523498 158.512947435962 901.726287914424
-38.3631384219051 161.75985779804 904.460404889829
-38.3899289552307 164.726167997642 906.282283433379
-38.0816394002942 168.001835108221 909.016369341912
-38.1154149630057 170.991673556597 910.838222467112
-37.8156626662077 174.296097415677 913.572277308774
-38.8639918662205 176.389236129488 912.657474447895
-39.5756887492189 178.786503254549 912.65488460052
-40.287385632217 181.183770379609 912.652294753145
-40.3320267961957 184.210208326078 914.474108338692
-40.3797724176794 187.247103272001 916.295910627194
-40.7625981274253 189.974641306949 917.205505550713
-40.4845770331616 193.352264162214 919.939481313066
-40.5416360271598 196.420530106502 921.761249710435
-40.9314467662916 199.171596390223 922.670819215606
-41.6516809074284 201.597620263785 922.66819830136
-41.7157249308128 204.689414456847 924.48994128038
-41.4555544672024 208.127165058979 927.223852084728
-41.5265835199727 211.242487500815 929.045569645399
-41.6007170302481 214.368266942107 930.867275909026
-41.3529643966572 217.847845542059 933.601141525197
-41.7582974233136 220.651196823054 934.510654545147
-41.8417443061035 223.80834726271 936.332326917641
-40.9603088716709 228.029509428212 940.890474523509
-36.2240008546048 236.522403996277 956.394506117304
25.0905321925034 2.26195747076972 932.787609894612
20.8068931583414 3.6698648660111 924.583233793915
18.5078389002429 5.62683561118214 920.935406239345
16.2149935571542 7.56289235744318 917.287601278862
14.3209278437811 9.60248757401716 914.551112805831
12.4315188166653 11.6263972914086 911.814641278367
10.546766475807 13.6346215096175 909.078186696469
7.88618607805171 15.3625697910156 904.519178218976
6.01229933846048 17.334194511132 901.782763176732
3.36568899947719 19.0150862949825 897.223805535939
1.89058188960161 21.0902494854118 895.398706981146
-0.742834504985922 22.7266990215786 890.83979735279
-2.59576615641902 24.6277389953737 888.103458565595
-5.21521249223451 26.2171320339929 883.544599773938
-7.44208811334408 27.9309775418351 879.897034875643
-8.51065444974176 30.0835367039398 878.983281050914
-10.3441832417693 31.9192204311412 876.247012870244
-12.9380178031693 33.4223432242566 871.688247279201
-15.9057963342457 34.7382715514189 866.21825557706
-17.3405454965577 36.6774937489333 864.393303883842
-18.7721902013647 38.6062589469925 862.568363487668
-21.7182375299068 39.8489882779699 857.098450864836
-24.2763708300005 41.2318555773526 852.539815189801
-26.0710939032168 42.9368268113664 849.803688222183
-26.7300150086317 45.1563249456916 849.801290424559
-28.517753052462 46.8377679309315 847.065188875291
-31.0518268068926 48.1395934845381 842.506640752348
-32.8286992494557 49.7844369716856 839.770578742735
-33.1051391270557 52.1623728234624 840.679438123081
-32.2636276675074 55.114963322417 844.321961715417
-31.800716863893 57.8960448546011 847.053242251088
-31.3424627465358 60.6928118859678 849.784505841193
-31.6305443397792 63.1099614857009 850.693322857623
-32.6603049573656 65.1318081546181 849.779710245946
-32.5806514959423 67.7570662192142 851.599730779386
-32.135591322981 70.5982754982645 854.330946357053
-32.0629228909438 73.2470618116345 856.150941472144
-33.0942357372826 75.2741369802792 855.237323211944
-33.0254478771265 77.9359945429678 857.05730420573
-32.9597644744752 80.6083091051116 858.877273902472
-32.1679243350053 83.7282115953462 862.519616742101
-32.8377110416874 85.9843092277639 862.517179404823
-32.4182626431415 88.9117887523181 865.248301781876
-33.0903776929522 91.1757291343271 865.245855971815
-32.6779143237923 94.126736907655 867.976952930518
-32.9916076914511 96.6301567528919 868.885676746334
-32.5869054660536 99.6073070248578 871.616745462427
-32.1868599269133 102.600142796005 874.347797232954
-31.7914710740303 105.608664066336 877.078832057915
-32.1160300429561 108.148683409665 877.987516334077
-32.4421412406347 110.693931252723 878.896194961716
-33.1258980060888 112.997085382688 878.893706787739
-33.4543375468959 115.550175975336 879.802376942595
-33.4297882061845 118.361045780259 881.622196953502
-33.4083433229781 121.182372584636 883.442005667364
-33.3900028972763 124.014156388468 885.261803084182
-33.726979696222 126.596003729618 886.170442172167
-33.362635418388 129.709094994499 888.901364026686
-33.3536083652012 132.572249796696 890.721127552372
-32.9978013455058 135.714097810078 893.45201834002
-33.6939759409794 138.059079937863 893.449484977866
-33.693486145931 140.950991488562 895.26921743668
-34.0436568892724 143.577281077396 896.177808512228
-34.7421598278746 145.930105954772 896.175266677291
-35.4406627664771 148.282930832148 896.172724842354
-35.103482491811 151.48752084226 898.903547847736
-35.1154105267822 154.421260390779 900.723235118374
-35.1304430192584 157.365456938753 902.542911091968
-36.1772781531217 159.444817104672 901.629236346547
-36.196191217479 162.402084901965 903.448898198835
-36.2182087393412 165.369809698713 905.268548754079
-35.9027596672093 168.64759870501 907.999292680153
-35.9317622184574 171.638851750531 909.818917817047
-35.9638692272105 174.640561795507 911.638531656898
-36.3373234018387 177.345278880254 912.547038004614
-37.7247295872007 179.125031836078 910.722258591319
-37.7622693965873 182.145041630101 912.541852661343
-37.802913663479 185.175508423579 914.361435434322
-37.5115241370103 188.534339175652 917.092091808303
-38.2278777062658 190.947291799895 917.089485015362
-37.943473209183 194.329650800742 919.820115970994
-37.6637253983575 197.727695300771 922.55072998106
-37.7206680671499 200.813061341388 924.370253444557
-38.111972872431 203.577906173 925.278694834269
-38.174348341857 206.681571962663 927.098198527939
-38.2398282687876 209.79569475178 928.917690924565
-37.9794833173679 213.259095498404 931.648234328104
-38.0519482736845 216.396746536295 933.467701306381
-37.8001405804034 219.88890403142 936.198213643049
-38.2061915588328 222.703419610443 937.106601371801
-37.9621450093137 226.221719604205 939.837085465859
-35.7724625622063 231.867058341366 948.033841710267
26.9357859024029 2.81211536067821 930.830264194465
23.0287299945977 4.32835983710669 923.546105237401
20.7201297135721 6.28250138798731 919.902733659443
18.4177383475565 8.21572893995793 916.259384675573
16.9114703374258 10.3783620286096 914.436418084211
15.4083067848 12.5305381178063 912.613462789894
13.1214377063088 14.4114806725019 908.970170291245
10.4481486655185 16.1385067109007 904.416728960256
8.17447353142308 17.9750070179124 900.773484474045
5.9070073123375 19.7905933260142 897.130262581922
3.64575000826176 21.585265635206 893.487063283887
1.39070161919574 23.3590239454878 889.84388657994
-0.469389549432606 25.2579420235651 887.110889775204
-3.10076841390679 26.8437985693212 882.557600954312
-5.33719005794342 28.554814882873 878.91449203263
-7.18098282467105 30.3988337138115 876.181554537375
-8.63447505721848 32.3836978117281 874.358779995765
-11.239466032901 33.8806698621167 869.805587199748
-13.8366958648213 35.3514994138678 865.252422646342
-15.6595335433909 37.124933498485 862.519561406136
-17.0951751452851 39.0496698495353 860.696851822529
-20.4365286698833 40.115939123734 854.323494102104
-22.6240551082177 41.6622576958693 850.680563108868
-24.425161584253 43.3624927843015 847.947780947971
-24.7038716423786 45.7568214338335 848.855509388597
-26.4987692034041 47.4361425233557 846.122749821788
-28.6668927823329 48.9171048488973 842.479889435078
-30.0745942666831 50.7477282048525 840.657281524869
-29.9738693918955 53.3195016194551 842.475133379485
-29.125140252549 56.2827640622914 846.113192522426
-28.6573982748679 59.0738102397845 848.841122602855
-28.1943129834443 61.8805419164602 851.569035737718
-28.8555624319878 64.1078828003766 851.566629467311
-29.5168118805313 66.335223684293 851.564223196904
-29.8063875399241 68.7661518319175 852.471912097876
-29.3557200785201 71.6147115064133 855.199780044562
-29.2798308637717 74.2701409166559 857.017541522825
-30.3150824445947 76.3017372864554 856.105031608256
-29.8745044700816 79.18428220918 858.832862839548
-29.8063763990955 81.8658541180601 860.650596075201
-28.6403014769338 85.2157013150671 865.198552691247
-29.6794336296381 87.2603689341854 864.286028655373
-29.6206189311666 89.9733118414306 866.103727999893
-30.2942862097298 92.242480723167 866.101276541309
-29.5123029067385 95.4305686542855 869.7390927978
-29.8259381117943 97.9425385476868 870.64669414668
-29.0540442956939 101.164611727034 874.284473687778
-29.734696603643 103.457308857544 874.281996810845
-29.3329243479412 106.470566273457 877.009686829085
-29.6558729255116 109.013907165222 877.917254286833
-29.9803737318346 111.562476556716 878.824816096058
-30.6649066116648 113.868244936545 878.82232509782
-30.6340320307376 116.675300838885 880.639922768942
-30.2493342913124 119.746071751799 883.36755065344
-30.225444739771 122.576655902913 885.185122906213
-30.2046596457347 125.417697053482 887.002683861942
-30.8961775549512 127.746993682086 887.000167445354
-30.880049147172 130.603720331837 888.817711455517
-31.2200722410195 133.204574720605 889.725216779522
-30.8571057041289 136.348544629705 892.45276558471
-31.2017854842334 138.965084517656 893.360253963148
-31.1972987920978 141.861024915364 895.177755609395
-31.5458591440836 144.490636052633 896.085229866528
-31.8959717248218 147.12547568963 896.992698475139
-31.8992461764486 150.047558585976 898.810171878776
-31.90562508558 152.980098481776 900.627633985369
-31.9151084522163 155.923095377031 902.445084794917
-32.273758291093 158.586691762529 903.352522336656
-32.6339603587224 161.255516647756 904.259954229874
-32.9957146551038 163.929570032709 905.167380474569
-33.359021180238 166.60885191739 906.074801070742
-33.0379648196636 169.893991319132 908.802197365835
-33.4059280310548 172.588958702995 909.709601016442
-33.0926328142427 175.900240603376 912.436969068923
-33.4652527118913 178.610893486421 913.344355773964
-34.1792779380183 181.016003361073 913.341757453807
-34.2151491934462 184.047884751695 915.159112238479
-34.5924257773524 186.774223133924 916.066481997954
-34.296205076817 190.143018531306 918.793787916693
-34.6781383469804 192.885042412717 919.701140730601
-34.3896787902073 196.279980308737 922.42841840673
-33.7706795062234 200.017060711244 926.065641568402
-33.8267297354332 203.116912598324 927.882922922288
-34.2195286068639 205.895535977828 928.790236196542
-33.9481435663677 209.34798737085 931.517451738927
-34.0135071680923 212.479210256296 933.334699201681
-33.7506593857348 215.96041839782 936.061883677195
-34.1535477440562 218.773027025551 936.969160236055
-33.8984611054607 222.280377665713 939.696316468959
-34.6349936484982 224.761300786413 939.693636245231
-33.7304692711241 228.992150187504 944.240641085307
-29.2319180707462 237.127736652594 958.796893756269
28.3758184171647 3.24544858652835 927.966069280524
24.850894761556 4.86883049142538 921.599902303046
22.9324205269015 6.93816716479249 918.870061079541
21.0186029785044 8.99181833897708 916.140236801601
19.1094421163646 11.0297840139792 913.410429469228
17.6015055522753 13.1805455060306 911.589702163217
15.700881948274 15.1897544325314 908.859925897715
13.0148842644488 16.9158582279309 904.312051713231
10.7308869930501 18.7521435905161 900.673260379371
7.66617232808494 20.2896383228174 895.216388072094
5.39614511545835 22.0788671878549 891.577647574933
2.74041589230592 23.7030152385681 887.02988353663
1.26585224639427 25.7413639864783 885.209277673843
-1.37668303236245 27.3210697895078 880.661561647978
-2.45312683772852 29.4826713539222 879.75002451451
-4.69443781843472 31.1751729740011 876.111388515007
-6.5415095304765 33.003998659903 873.381807123517
-9.15843303481779 34.4974342174285 868.834184298266
-11.7675953953968 35.9647272763166 864.286589715625
-13.5975925911616 37.7360394652161 861.557070457878
-15.4229331006691 39.491666154933 858.827568145697
-18.0119164874663 40.8909887173635 854.280046993843
-20.2097650631039 42.4370923450722 850.641569152958
-22.0188071707107 44.1378197876504 847.912126150259
-22.6777282761255 46.3573179219755 847.909728352635
-24.0987400300776 48.2152834292868 846.089317363861
-26.2771857463097 49.6960308104017 842.450910129502
-27.3109432609834 51.7138486323099 841.539528330391
-27.2069976034848 54.2922651437852 843.355146548179
-26.3502746699637 57.2635852806394 846.988744065985
-25.8769254038399 60.0619818535779 849.713326515433
-26.161010099996 62.48316030032 850.619912719296
-26.4466470249045 64.9095672467896 851.526493274637
-27.1086725878243 67.1395223805698 851.524084179969
-27.0225775609788 69.7780666389113 853.339637439753
-26.9395869916384 72.4270678967079 855.155179402493
-26.4871928136726 75.2960492159677 857.879685596893
-27.154651177226 77.5443040987941 857.877256732398
-27.0801978660239 80.222062105092 859.692767628266
-26.6386692893253 83.1276429224443 862.417234283011
-26.5712010075093 85.8289291775159 864.23271976053
-26.8754646774472 88.3180781207156 865.139232533606
-26.8134291962648 91.0376641248335 866.954698241298
-27.1215734380838 93.5398843173519 867.861196893069
-26.3323724552943 96.7386441923525 871.494548700164
-26.2804264610028 99.4922154446993 873.309977692462
-25.5020910794805 102.727574817793 876.943289959903
-26.5498186529261 104.792449137248 876.031857324094
-26.5064099167732 107.574777138096 877.847255249521
-26.8285242173641 110.124053828162 878.753703064593
-27.1521907467077 112.678559017955 879.660145231143
-27.4774095048037 115.238292707476 880.566581749171
-27.4440902555418 118.054605956553 882.381942959204
-27.0545613420501 121.135341514777 885.106220388459
-27.0282271221739 123.975183012627 886.921556180143
-27.3627592527846 126.566287700513 887.827958807039
-28.0558293907535 128.900812828843 887.825436741929
-28.3926898644928 131.49976026632 888.731830896042
-28.7311025669847 134.103936203525 889.638219401632
-28.361752627275 137.252642258207 892.3624234001
-28.3509406949232 140.144768753332 894.177702706563
-28.696338426801 142.77247293931 895.084065793804
-29.0432883874313 145.405405625016 895.990423232523
-29.0402375988422 148.32367461878 897.805674296376
-28.338737540566 151.817844728384 901.438706961974
-28.6934486449583 154.476919912727 902.345036158082
-28.7004873432599 157.429174154719 904.160250506541
-28.3621819785993 160.68245020395 906.884341534568
-28.3762057062871 163.658232694716 908.699530464677
-29.4340227666236 165.757092262401 907.788061113474
-30.1441674208694 168.149130887733 907.785476914622
-29.8182798862283 171.444234934785 910.509522754472
-29.8416169864306 174.451388423915 912.324677793449
-30.2118503783477 177.162748605534 913.230950504337
-30.5836359990172 179.87933728688 914.137217566702
-30.9569738484391 182.601154467954 915.043478980546
-30.648936944451 185.956386261871 917.767459862392
-30.6862441034254 189.010596248549 919.58256406467
-30.0468331952473 192.713906347254 923.215370789385
-30.4310366459363 195.47232302642 924.121592663574
-30.4784332918017 198.560518261327 925.936660150459
-30.1913514759717 201.986334801565 928.660564777257
-30.245733151223 205.098058285246 930.475606845792
-30.3032192839793 208.220238768382 932.290637617284
-30.0285552981689 211.68788330644 935.014497055905
-29.7585479986161 215.171213343682 937.73833954896
-29.4931973853206 218.670228880107 940.462165096448
-30.2312821571104 221.156380500534 940.459479224198
-30.6372168103337 223.987996175885 941.365622019078
-30.7133296881193 227.172918655751 943.180585008305
-28.4783617947116 232.823146017627 951.35729783074
34.5680798885918 2.36666015170024 934.188631349361
30.2091395984054 3.79206998357382 926.014293551143
27.4724036671103 5.64534977929787 921.471848124372
25.1447113402307 7.59383294159765 917.837388499639
23.2237342746384 9.64536222006444 915.110906204158
21.3074138953035 11.6812059993487 912.384440854244
19.7947043197507 13.830552894255 910.565941536539
17.8869211985541 15.8376399250379 907.839507253496
15.1889909860701 17.5602072275744 903.297203039778
12.8954476917445 19.3936633958691 899.66286768253
9.81641399238885 20.9269143367348 894.212679340172
7.93191430247902 22.8555738716053 891.486329784961
5.26347643629157 24.4787996793192 886.944132893162
3.78336366454016 26.5183480799478 885.125752194421
1.52086494526361 28.2472342536925 881.491529807615
-0.735424859003103 29.9552064285271 877.857330014897
-2.59431277449755 31.7975957178938 875.131073660299
-4.83896086312092 33.4663541447721 871.496916231497
-7.07740003673456 35.1141985727404 867.862781396783
-9.30963029533831 36.7411290017988 864.228669156157
-11.1475631226746 38.5129335448442 861.502489056608
-12.9808392637536 40.269052588707 858.776325902625
-15.5825312935857 41.6674529081383 854.234371897276
-18.1764621796556 43.0397107289319 849.692446134537
-19.9926638044576 44.7383162757923 846.966345114297
-21.4200007986257 46.6000956856858 845.148156465307
-22.0773696752881 48.8143653202835 845.145764316205
-23.5000499831988 50.6604592309946 843.327592612781
-23.773987029861 53.0562024776718 844.233093065101
-23.6683728184037 55.6464905857472 846.046471997539
-22.8052083194606 58.6310969163469 849.675602241689
-23.0869065098849 61.0529826616616 850.581074451399
-22.9913817853187 63.6772560179658 852.394416668443
-23.2769605476241 66.1122130125994 853.299874756848
-23.5640915386819 68.5523985069603 854.205327196731
-23.476327957878 71.2028143619022 856.018641171164
-23.767339520817 73.6560711055819 856.924079489742
-24.0599033125085 76.1145563489891 857.829512159798
-23.9799008754667 78.7911147025684 859.642797891621
-23.5296605528204 81.6935889159111 862.363928212429
-23.8292093738979 84.1756024080921 863.269335464135
-23.7585203093709 86.8835317600364 865.082587304826
-23.6909357023487 89.6019181114357 866.895827848472
-23.996693438436 92.1048456025267 867.80121250609
-23.5650798608191 95.0700618125994 870.522275044633
-22.7694373126074 98.2821078813452 874.151159578072
-19.7725464245503 102.917619605128 883.227038214631
-20.0953786769148 105.478060593223 884.132360738506
-22.6179070403717 106.609807426551 879.590694807783
-23.6703494626779 108.681817197025 878.680367693344
-23.9916294862898 111.237029685391 879.585695865741
-24.314461738654 113.797470673485 880.491018389616
-24.6388462197708 116.363140161306 881.396335264969
-24.6023061877975 119.186096507255 883.209462838174
-24.2071699858632 122.274182460925 885.930392636447
-24.5385394963661 124.86338019752 886.835684093451
-24.8714612356212 127.457806433842 887.740969901932
-25.565307487966 129.794945812035 887.738445012562
-25.5419614003889 132.662344405669 889.551524573329
-25.8795398259012 135.272456141173 890.456793436244
-25.5045825977489 138.4285125913 893.177649803731
-25.8468177095185 141.054309825987 894.08290172108
-25.8351133375847 143.960922167577 895.895938917932
-26.1812290212356 146.599790651583 896.801176713976
-25.4670784825277 150.086332956023 900.429764700005
-25.4654635974845 153.026930545841 902.242765181463
-25.4669531699465 155.977985135114 904.055754365877
-25.4715471999134 158.939496723843 905.868732253247
-24.7775756349871 162.49400952474 909.49724680849
-24.4398718968933 165.775549968327 912.217967611447
-25.5039560348428 167.886773486757 911.307598133092
-25.5209678948292 170.890113073306 913.120530832285
-26.2365453497085 173.300451447685 913.117926863605
-25.9112594416346 176.623819889092 915.838602478385
-26.282986899701 179.348958618601 916.743747073815
-26.6562665865199 182.079325847839 917.648886020722
-27.0310985020911 184.814921576804 918.554019319107
-26.0320826591633 188.81494722602 923.090141225407
-25.726975724871 192.206286163884 925.8107434094
-25.7688232448966 195.293281746073 927.62358573224
-26.4968185297954 197.745448118271 927.620936575383
-26.2025771967702 201.173386554228 930.341499219722
-26.2529619749343 204.289138884917 932.154310475691
-26.645644521159 207.084862360749 933.059378816072
-26.7014620999565 210.218914440485 934.872170302213
-26.7603841362588 213.363423519675 936.68495049131
-26.4855456626393 216.856718202225 939.405442529122
-26.2153638752773 220.365698383959 942.125917621369
-26.6204642515214 223.20324985761 943.030940773573
-26.6925802322197 226.392201184485 944.843672950233
-26.1002796505791 230.289180717534 948.471817527279
-21.8513596329449 238.07247263495 962.084738779237
38.0413197336345 3.37768854539615 935.856462988872
32.4429089633205 4.45410144753245 924.971595023863
29.6942405033665 6.30384475039347 920.434719567858
26.9533331871747 8.12744555461697 915.897872354463
25.4288655707725 10.2989061011518 914.081575606715
23.1032689366094 12.2053463212049 910.451614322509
21.1852218407127 14.2207684557251 907.728510724882
19.2718314310735 16.2205050910627 905.00542407282
16.9633093131873 18.0694318141133 901.375524922357
14.2619838301829 19.7597058752855 896.838821746276
11.568419490941 21.4238374378202 892.302146812805
9.67753639821217 23.347760827109 889.579142064313
7.39462605474154 25.1104173046558 885.949336114465
5.5138324489036 27.0003554457159 883.226368081367
2.84743211282944 28.5729882630193 878.689791997032
0.977504108258699 30.4263269059868 875.966863503589
-0.494187730560327 32.4200184617865 874.150758805592
-2.74838184211069 34.0859476943744 870.521057353402
-5.3883942893932 35.5696960163102 865.984577293942
-7.62939445654774 37.1911830012143 862.35492385419
-9.08323566471364 39.1247468101478 860.538884114197
-10.9236713229878 40.8787439582928 857.816062942673
-13.9262186747158 42.1018838736639 852.372889003776
-16.1431592962073 43.6423291127917 848.743323116116
-17.9665204382046 45.3388127639343 846.020564078335
-19.3986304438361 47.1991775766826 844.204603417651
-20.4418176562306 49.2312663006281 843.29543266128
-21.4834526398728 51.2581265248462 842.386267553431
-21.3707370738234 53.8419864804756 844.197426970346
-20.8776359726755 56.6263270958034 846.915345224702
-20.389191557785 59.4263532103138 849.633246533492
-20.6692793568538 61.8515605040649 850.537601924789
-20.1885960857255 64.6777291172128 853.255474990968
-20.0929550359531 67.3191025698448 855.06657227414
-20.0004184436857 69.9709330219318 856.877658260267
-19.9109863089231 72.6332204734738 858.688732949351
-20.5807730156051 74.8893181058915 858.686295612073
-20.8732786446935 77.3563533974626 859.590605815192
-20.790831539317 80.0421690977783 861.401655085926
-20.3357600426041 82.9546079564301 864.119434951491
-20.6352507010786 85.4451714967749 865.023719736261
-20.1879403481279 88.3837528540641 867.741471359216
-20.1186871871472 91.1140108020637 869.552472617513
-20.4251628750076 93.6281025911823 870.456731983933
-20.3613425146604 96.3766602882282 872.267713472402
-19.5584822866506 99.5993783008561 875.892133556446
-16.1697586361969 104.484271667883 885.86358590074
-17.6018686418287 106.344636480632 884.047625240055
-19.3996180094103 107.954849886271 881.324959402889
-20.4567752805772 110.033995107764 880.41573780982
-20.7779971415857 112.597757644294 881.31994351528
-21.1007712313468 115.166748680551 882.224143572219
-21.4250975498604 117.740968216536 883.128337980636
-21.3861128495524 120.573181909222 884.939229092752
-21.3502326067494 123.415852601363 886.750108907823
-21.3174568214515 126.268980292959 888.560977425851
-21.6503203981034 128.871956577445 889.465140767396
-21.984736203508 131.480161361659 890.369298460419
-22.3207042376649 134.0935946456 891.27345050492
-22.6582245005742 136.712256429268 892.177596900899
-22.6378665452958 139.607212118685 893.98842023075
-22.2619587149578 142.786304463439 896.705912021689
-22.6064640072534 145.428494495881 897.610032999319
-22.2383173206777 148.633729339274 900.327496547648
-22.2311533097949 151.573127276373 902.13827186506
-22.2270937564169 154.522982212927 903.949035885429
-22.5809124212271 157.196543243735 904.853122971927
-21.8742903758691 160.743428239468 908.477192847601
-21.1738772455209 164.311227234111 912.101240129187
-21.1845638652912 167.310752918077 913.911950488596
-21.9016935489229 169.726319792183 913.909340871395
-21.9170368549509 172.741530975332 915.720034285237
-21.9354846184834 175.767199157936 917.530716402036
-21.9570368395209 178.803324339994 919.34138722179
-22.3302583637367 181.542241617395 920.245403701762
-22.7050321167051 184.286387394524 921.149414533211
-23.0813580984256 187.03576167138 922.053419716138
-22.7667633038095 190.421379755371 924.770688390455
-22.4568251954506 193.822683338544 927.487940119205
-22.1515437733493 197.2396724209 930.20517490239
-22.5387353563369 200.025646195848 931.109140545663
-22.5843471230378 203.142813123684 932.919723813325
-22.633063347243 206.270437050973 934.730295783943
-22.6848840289531 209.408517977718 936.540856457517
-23.0806128700797 212.223248501168 937.444791033918
-23.4778939399582 215.043207524345 938.348719961796
