ply
format ascii 1.0
element vertex 711
property float x
property float y
property float z
property float nx
property float ny
property float nz
element face 0
property list uchar int vertex_indices
end_header
-48.7620864002791 142.213038653545 908 -0.976173 0.117277 -0.182572
-49.0843028302369 145.645272987925 914 -0.988174 -0.042416 -0.147351
-49.1917083068895 148.461926264141 916 -0.964286 -0.053516 -0.259399
-49.1917083068895 150.959880912375 916 -0.990334 0.0432 -0.131805
-49.0843028302369 153.122774784276 914 -0.955582 0.137419 -0.260729
-49.2991137835421 156.296305034626 918 -0.954765 0.137515 -0.263654
-49.5139247368473 159.491651482778 922 -0.986757 -0.015637 -0.161453
-49.6213302134999 162.357391204047 924 0.999274 0.016113 -0.03451
-49.5139247368473 164.520285075948 922 -0.956853 0.14105 -0.254041
-49.6750329518262 167.57809840791 925 0.982332 -0.181104 0.047169
-49.7824384284788 170.468381351705 927 -0.995539 0.027283 -0.090321
-50.1046548584366 174.116050639371 933 0.116916 0.264326 -0.957321
-50.1046548584366 176.660364707933 933 0.21671 0.266743 -0.939087
-49.9435466434577 178.628457944415 930 -0.980955 0.062037 -0.18406
-49.8898439051314 180.969790303383 929 -0.965547 0.090427 -0.244014
-50.910195933331 187.256221815765 948 0.998561 0 0.053625
-50.6416822416995 188.840167830862 943 -0.948913 0.019528 -0.314933
-50.910195933331 192.426660694642 948 0.998561 0 0.053625
-50.6953849800258 194.189045196806 944 -0.954785 0.075703 -0.287499
-51.0176014099836 198.013971091607 950 0.998561 0 0.053625
-50.9638986716573 200.393481796727 949 -0.953168 0.198884 -0.227852
-51.2324123632888 204.050877303361 954 -0.916106 0.238259 -0.322462
-51.5009260549203 207.735543057247 959 0.765443 0.349044 -0.540616
-51.3935205782677 209.912072052774 957 -0.9323 0.153382 -0.327553
-46.846680799459 6.09841910295467 919 -0.18378 -0.84499 -0.502212
-46.5918022314532 8.55774005482345 914 -0.118907 -0.748202 -0.652729
-46.4388750906498 11.0139707171073 911 -0.095639 -0.764143 -0.637917
-46.2349722362452 13.4390222274819 907 -0.191737 -0.810473 -0.553507
-46.0310693818406 15.8422575400553 903 -0.22262 -0.824698 -0.519917
-45.9800936682394 18.2844898138536 902 -0.24649 -0.766396 -0.593194
-45.7761908138348 20.6522738050001 898 -0.219554 -0.817512 -0.532419
-45.6232636730313 23.0239667008044 895 -0.250793 -0.82688 -0.503361
-45.3683851050256 25.3223931938896 890 -0.249427 -0.821628 -0.512556
-45.2154579642221 27.6559077435418 887 -0.293139 -0.781877 -0.550216
-45.0115551098175 29.9391539682088 883 -0.242388 -0.794205 -0.557213
-44.8586279690141 32.2372171964342 880 -0.262653 -0.856716 -0.443904
-44.6547251146094 34.4795580502239 876 -0.161433 -0.855645 -0.491743
-44.4508222602048 36.7000827062125 872 -0.150134 -0.828106 -0.540093
-44.2978951194014 38.943605439935 869 -0.243402 -0.812339 -0.529963
-44.1449679785979 41.1707660253065 866 -0.230769 -0.841476 -0.488532
-43.9410651241933 43.3312961373419 862 -0.222067 -0.82005 -0.527451
-43.7371622697887 45.4700100515761 858 -0.231662 -0.825142 -0.515242
-43.5332594153841 47.5869077680092 854 -0.126321 -0.800491 -0.585881
-43.3803322745806 49.7404386858018 851 -0.108472 -0.758677 -0.642373
-43.2783808473783 51.9387838791294 849 -0.100527 -0.597326 -0.795673
-43.2274051337772 54.1901244221675 848 -0.153057 -0.261425 -0.953011
-43.1254537065749 56.3693804424191 846 -0.161651 0.149239 -0.975498
-43.0744779929737 58.6070858618315 845 -0.090814 0.361773 -0.927833
-43.176429420176 61.0555908001531 847 -0.12145 0.391926 -0.911945
-43.2274051337772 63.4401922898636 848 -0.118156 0.460941 -0.87953
-43.3293565609795 65.9077864012611 850 -0.097186 0.534603 -0.839496
-43.3803322745806 68.3060230145973 851 -0.078168 0.549619 -0.831751
-43.4822837017829 70.7927062990709 853 -0.105193 0.574762 -0.811531
-43.5332594153841 73.2045780360329 854 -0.090668 0.561749 -0.822324
-43.6861865561875 75.7987971647198 857 -0.125735 0.518517 -0.845772
-43.7371622697887 78.2270310500327 858 -0.198725 0.468115 -0.861033
-43.7371622697887 80.5668182642082 858 -0.102005 0.465015 -0.879407
-43.7881379833899 83.0032332236964 859 -0.143891 0.456758 -0.877877
-43.839113696991 85.445102232635 860 -0.178537 0.499267 -0.847854
-43.9920408377945 88.09658888055 863 -0.275158 0.538271 -0.796588
-44.0430165513956 90.5548200378395 864 -0.229984 0.533006 -0.814256
-44.1959436921991 93.233576933006 867 -0.228263 0.474393 -0.850205
-44.2978951194014 95.8184331075848 869 -0.238853 0.522275 -0.818644
-44.2978951194014 98.1882175937369 869 -0.213476 0.565427 -0.796693
-44.3998465466037 100.789435916667 871 -0.260641 0.622517 -0.737929
-44.5527736874071 103.520006281611 874 -0.344671 0.662082 -0.66547
-44.7566765418117 106.388109762745 878 -0.401462 0.58852 -0.701764
-44.9096036826152 109.154131449116 881 -0.477339 0.533469 -0.698254
-44.9605793962164 111.68326524926 882 -0.462671 0.474583 -0.748803
-45.0115551098175 114.217853098853 883 -0.267731 0.504176 -0.821052
-45.1135065370198 116.889974064637 885 -0.384522 0.46588 -0.796931
-45.2154579642221 119.573003129321 887 -0.467867 0.429521 -0.772407
-45.3174093914244 122.266940292905 889 -0.484041 0.392424 -0.782117
-45.3683851050256 124.831525414476 890 -0.481592 0.399163 -0.780217
-45.4703365322279 127.544551751136 892 -0.505998 0.417124 -0.754966
-45.521312245829 130.122771996332 893 -0.455181 0.447781 -0.769612
-45.5722879594302 132.706446290978 894 -0.410167 0.46636 -0.783755
-45.7252151002336 135.597911114706 897 -0.559134 0.467978 -0.684373
-45.7761908138348 138.197947557703 898 -0.611452 0.410062 -0.676739
-45.8781422410371 140.960060339417 900 -0.654189 0.346563 -0.672259
-46.0310693818406 143.892430534022 903 -0.675551 0.331599 -0.658538
-46.1330208090429 146.679086538261 905 -0.819722 0.31602 -0.47769
-46.2349722362452 149.476650641402 907 -0.819731 0.329402 -0.468546
-46.2349722362452 151.950062067109 907 -0.78969 0.357702 -0.498436
-46.3878993770486 154.934245731492 910 -0.771099 0.331693 -0.543495
-46.3878993770486 157.415838231375 910 -0.723395 0.37295 -0.58104
-46.5408265178521 160.424565118285 913 -0.714937 0.387049 -0.582287
-46.5408265178521 162.914338692343 913 -0.621809 0.402019 -0.672111
-46.6937536586555 165.947608801779 916 -0.716459 0.253848 -0.649805
-46.7447293722567 168.62945598653 917 -0.66235 0.231289 -0.712599
-46.8976565130601 171.689996343217 920 -0.700819 0.245084 -0.669916
-46.9486322266613 174.388205676319 921 -0.772377 0.332922 -0.540923
-46.9996079402624 177.091869058872 922 -0.741932 0.339178 -0.578355
-47.0505836538636 179.800986490875 923 -0.690509 0.368165 -0.622617
-47.1525350810659 182.713085632471 925 -0.740869 0.322431 -0.589196
-47.2035107946671 185.4358381881 926 -0.716233 0.305187 -0.627592
-47.3054622218694 188.367026502772 928 -0.697262 0.312309 -0.645204
-47.3564379354705 191.103414182027 929 -0.686802 0.302428 -0.660938
-47.4074136490717 193.845255910731 930 -0.667825 0.322968 -0.670597
-47.4583893626728 196.592551688886 931 -0.652161 0.361879 -0.66613
-47.6113165034763 199.77308113348 934 -0.630359 0.428622 -0.647249
-47.8152193578809 203.186589559643 938 -0.728463 0.408353 -0.550081
-48.0191222122855 206.621914183608 942 -0.820016 0.260338 -0.509703
-48.172049353089 209.856984122704 945 -0.838853 0.257699 -0.479497
-48.1210736394878 212.209224580573 944 -0.725917 0.353337 -0.590083
-48.2230250666901 215.23858578535 946 -0.752592 0.398935 -0.523886
-48.3759522074936 218.509107045874 949 -0.727821 0.466941 -0.502237
-48.6308307754993 222.261948417888 954 -0.671986 0.601954 -0.431377
-48.8857093435051 226.042060037154 959 -0.68713 0.693087 -0.217906
-50.0581507563316 234.141236462038 982 0.315986 -0.947959 -0.03907
-44.4370424548016 6.11169096172062 921 -0.008968 -0.940303 -0.340219
-44.2440476992976 8.58582891714782 917 -0.09212 -0.77066 -0.630553
-44.0993016326696 11.0502406536071 914 -0.12464 -0.777321 -0.616634
-43.8580581882895 13.4686562345987 909 -0.104217 -0.832855 -0.543591
-43.6168147439095 15.8598015683388 904 -0.157573 -0.843447 -0.513584
-43.4720686772815 18.2642187608449 901 -0.154551 -0.795872 -0.585407
-43.3273226106535 20.6522738050001 898 -0.174099 -0.822157 -0.541984
-43.2308252329015 23.0496918032634 896 -0.165024 -0.842147 -0.513376
-42.9895817885214 25.3508453210737 891 -0.143756 -0.852972 -0.501771
-42.7965870330174 27.6559077435418 887 -0.184919 -0.790588 -0.58376
-42.6518409663894 29.9730601448432 884 -0.16823 -0.822833 -0.542811
-42.5070948997614 32.2738503977937 881 -0.197839 -0.852412 -0.483997
-42.3141001442573 34.5189182763087 877 -0.052929 -0.866863 -0.495728
-42.1211053887533 36.7421699570224 873 -0.100433 -0.850628 -0.516086
-41.9763593221253 38.98841971547 870 -0.162084 -0.828153 -0.536555
-41.7833645666213 41.1707660253065 866 -0.141834 -0.839187 -0.525022
-41.5903698111173 43.3312961373419 862 -0.074884 -0.849371 -0.522458
-41.3491263667372 45.4170147018657 857 -0.043907 -0.818337 -0.57306
-41.2043803001092 47.5869077680092 854 -0.062868 -0.798896 -0.598175
-41.1078829223572 49.7988880849625 852 -0.078771 -0.740957 -0.666917
-41.0113855446052 51.9999603030153 850 -0.097152 -0.584796 -0.805341
-40.9148881668532 54.1901244221675 848 -0.052143 -0.283978 -0.957412
-40.8183907891012 56.3693804424191 846 -0.078603 0.125328 -0.988997
-40.7701421002252 58.6070858618315 845 -0.058187 0.345349 -0.936669
-40.8666394779772 61.0555908001531 847 -0.046372 0.422065 -0.905379
-40.9148881668532 63.4401922898636 848 -0.023374 0.47893 -0.877542
-41.0596342334812 65.9853249734979 851 -0.050265 0.547793 -0.835102
-41.0596342334812 68.3060230145973 851 -0.03752 0.552389 -0.832742
-41.1561316112332 70.7927062990709 853 -0.032823 0.580992 -0.813247
-41.2043803001092 73.2045780360329 854 -0.026784 0.550691 -0.83428
-41.3008776778612 75.7103504935825 856 -0.029902 0.525376 -0.850345
-41.3973750556132 78.2270310500327 858 -0.012135 0.469606 -0.882793
-41.4456237444892 80.6607189847958 859 -0.061766 0.436322 -0.897668
-41.4456237444892 83.0032332236964 859 -0.06208 0.447725 -0.892014
-41.4938724333652 85.445102232635 860 -0.093411 0.475864 -0.874544
-41.6386184999933 88.09658888055 863 -0.152373 0.555674 -0.817318
-41.7351158777453 90.6596288573277 865 -0.117542 0.553342 -0.824619
-41.8316132554973 93.233576933006 867 -0.158097 0.509994 -0.845524
-41.8798619443733 95.7081702386463 868 -0.105999 0.532518 -0.839755
-41.9281106332493 98.1882175937369 869 -0.124627 0.563188 -0.816876
-42.0728566998773 100.905152835055 872 -0.163166 0.61333 -0.772789
-42.1693540776293 103.520006281611 874 -0.259658 0.66278 -0.702353
-42.3141001442573 106.266938794906 877 -0.236226 0.62723 -0.742146
-42.4105975220094 108.906335463988 879 -0.218168 0.599556 -0.770023
-42.5553435886374 111.68326524926 882 -0.197309 0.553329 -0.809257
-42.5553435886374 114.088501056839 882 -0.198583 0.529185 -0.824941
-42.7000896552654 116.889974064637 885 -0.240716 0.475594 -0.846089
-42.7483383441414 119.438197037856 886 -0.30946 0.476715 -0.822787
-42.8448357218934 122.129407176716 888 -0.324938 0.439858 -0.837222
-42.8448357218934 124.551005132645 888 -0.339316 0.425189 -0.839094
-42.8930844107694 127.115590254215 889 -0.351862 0.428994 -0.83196
-42.9413330996454 129.685629425236 890 -0.316957 0.476718 -0.819926
-43.0378304773974 132.409563860797 892 -0.315711 0.516684 -0.795842
-43.1343278551495 135.144406395259 894 -0.303404 0.500286 -0.810962
-43.2790739217775 138.044052293162 897 -0.422517 0.429265 -0.798255
-43.3755712995295 140.803438050151 899 -0.471623 0.388425 -0.791642
-43.4720686772815 143.573731906039 901 -0.546356 0.393473 -0.739374
-43.4720686772815 146.030781183396 901 -0.408113 0.444808 -0.797239
-43.5685660550335 148.817437187636 903 -0.3325 0.487858 -0.807117
-43.6168147439095 151.44747090261 904 -0.274554 0.50702 -0.817038
-43.7615608105375 154.423473492817 907 -0.486761 0.504874 -0.712858
-43.8580581882895 157.242853793758 909 -0.552951 0.46659 -0.690318
-44.0028042549176 160.248853655942 912 -0.589533 0.460648 -0.663516
-44.0510529437936 162.914338692343 913 -0.50627 0.429769 -0.747656
-44.1957990104216 165.947608801779 916 -0.502617 0.329978 -0.799056
-44.2440476992976 168.62945598653 917 -0.503895 0.309335 -0.806475
-44.2922963881736 171.316757220732 918 -0.460926 0.328255 -0.824497
-44.2440476992976 173.630819332448 917 -0.3194 0.387985 -0.864552
-44.2922963881736 176.3235746161 918 -0.329595 0.432551 -0.839206
-44.4370424548016 179.411385220039 921 -0.388319 0.467756 -0.793985
-44.5335398325536 182.318030312185 923 -0.484352 0.430505 -0.761622
-44.6300372103056 185.235583503231 925 -0.548187 0.361826 -0.754038
-44.6782858991816 187.961063083585 926 -0.496772 0.371246 -0.784471
-44.7265345880576 190.691996713389 927 -0.456731 0.361798 -0.812711
-44.8230319658097 193.636820151687 929 -0.433681 0.390777 -0.81192
-44.8712806546857 196.381388905117 930 -0.418468 0.430996 -0.799454
-44.9677780324377 199.345301516491 932 -0.403817 0.507431 -0.761213
-45.1125240990657 202.536739059985 935 -0.429683 0.527331 -0.733004
-45.2572701656937 205.74453875183 938 -0.494 0.460716 -0.737363
-45.4502649211977 209.190771474696 942 -0.515696 0.486417 -0.705306
-45.4502649211977 211.759628765783 942 -0.492109 0.459727 -0.739243
-45.4502649211977 214.328486056871 942 -0.498804 0.50808 -0.702175
-45.5950109878258 217.588099218494 945 -0.463706 0.572047 -0.676564
-45.7880057433298 221.097053510037 949 -0.480348 0.653913 -0.58452
-45.9327518099578 224.392117993087 952 -0.36434 0.800454 -0.475952
-46.4634873875939 229.611008872651 963 0.601935 -0.798346 -0.017843
-42.1075393395454 6.13823467925253 925 0.095784 -0.980217 -0.173203
-41.7888876904894 8.59519187125594 918 0.004767 -0.860406 -0.509587
-41.6978443621876 11.0744206112736 916 0.029579 -0.793113 -0.608355
-41.4702360414333 13.4982902417155 911 -0.017668 -0.856629 -0.51563
-41.1971060565282 15.8773455966224 905 -0.038084 -0.845337 -0.532875
-41.0150193999247 18.2642187608449 901 -0.029752 -0.798092 -0.601801
-40.8784544074722 20.6522738050001 898 -0.054255 -0.825807 -0.561336
-40.7874110791704 23.0496918032634 896 -0.03654 -0.862606 -0.504554
-40.5598027584161 25.3508453210737 891 -0.083001 -0.87594 -0.475226
-40.3321944376618 27.6247285916325 886 -0.116281 -0.791987 -0.599363
-40.1956294452093 29.9391539682088 883 -0.061289 -0.824449 -0.562608
-40.1045861169075 32.2738503977937 881 -0.058326 -0.826144 -0.560432
-39.9224994603041 34.5189182763087 877 -0.016701 -0.861795 -0.506981
-39.6948911395498 36.7000827062125 872 -0.002469 -0.873039 -0.487645
-39.6038478112481 38.98841971547 870 -0.007769 -0.850575 -0.525796
-39.4217611546446 41.1707660253065 866 -0.034928 -0.838508 -0.543768
-39.2396744980412 43.3312961373419 862 -0.009886 -0.852311 -0.522942
-39.0120661772869 45.4170147018657 857 0.01205 -0.826789 -0.562383
-38.9210228489852 47.6426301424448 855 0.001485 -0.80033 -0.599558
-38.8299795206835 49.8573374841233 853 0.008558 -0.760759 -0.648978
-38.7389361923817 52.0611367269012 851 -0.011889 -0.625655 -0.78001
-38.6023711999292 54.1901244221675 848 -0.038995 -0.304387 -0.95175
-38.4658062074766 56.302749969083 845 -0.065001 0.093773 -0.993469
-38.4658062074766 58.6070858618315 845 -0.029492 0.323229 -0.945861
-38.6023711999292 61.1276753229395 848 -0.008043 0.4091 -0.912454
-38.64789286408 63.5150038373752 849 0.025109 0.485156 -0.874067
-38.7389361923817 65.9853249734979 851 0.06238 0.552464 -0.831199
-38.7844578565326 68.3862886115593 852 0.059106 0.565255 -0.822796
-38.8755011848343 70.875698920758 854 0.050118 0.582553 -0.811246
-38.966544513136 73.3760173288573 856 0.051202 0.553054 -0.83157
-39.0575878414378 75.8872438358572 858 0.043084 0.493188 -0.868855
-39.1031095055886 78.3182047458952 859 0.04094 0.464048 -0.884863
-39.1031095055886 80.6607189847958 859 0.028402 0.408897 -0.912139
-39.1486311697395 83.0998609690092 860 0.012185 0.450083 -0.892904
-39.1941528338903 85.5444570026729 861 -0.013693 0.483464 -0.875257
-39.2851961621921 88.09658888055 863 -0.026256 0.552446 -0.833135
-39.3762394904938 90.6596288573277 865 -0.02271 0.55329 -0.832679
-39.4217611546446 93.1260410887926 866 -0.030887 0.534607 -0.844536
-39.5583261470972 95.8184331075848 869 -0.017671 0.526777 -0.84982
-39.6038478112481 98.3012074874006 870 -0.033498 0.565918 -0.823781
-39.6948911395498 100.905152835055 872 -0.035478 0.624294 -0.780383
-39.7404128037007 103.401562338497 873 -0.03881 0.649135 -0.759682
-39.8769777961532 106.145767827067 876 -0.082205 0.657398 -0.749046
-40.0135427886058 108.906335463988 879 -0.123802 0.625622 -0.770241
-40.1501077810584 111.68326524926 882 -0.145342 0.561546 -0.814581
-40.1501077810584 114.088501056839 882 -0.125322 0.539223 -0.832786
-40.286672773511 116.889974064637 885 -0.181155 0.46872 -0.864572
-40.3321944376618 119.438197037856 886 -0.21306 0.44631 -0.869145
-40.3777161018127 121.991874060526 887 -0.246237 0.436178 -0.865515
-40.3777161018127 124.41074499173 887 -0.214113 0.435661 -0.874274
-40.4232377659636 126.972603088575 888 -0.213555 0.458542 -0.862632
-40.4687594301144 129.539915234871 889 -0.167972 0.501374 -0.848769
-40.5598027584161 132.261122645707 891 -0.168716 0.530964 -0.830429
-40.6963677508687 135.144406395259 894 -0.210612 0.490339 -0.845701
-40.8329327433213 138.044052293162 897 -0.340273 0.419988 -0.841323
-40.8784544074722 140.646815760885 898 -0.308456 0.425126 -0.850954
-40.923976071623 143.255033278057 899 -0.211496 0.473266 -0.855154
-40.923976071623 145.706628505964 899 -0.21256 0.494273 -0.842919
-41.0150193999247 148.487830460753 901 -0.201475 0.514002 -0.833792
-41.1060627282265 151.279940514443 903 -0.205715 0.520547 -0.828681
-41.1971060565282 154.082958667034 905 -0.229851 0.519998 -0.822661
-41.3336710489808 157.069869356142 908 -0.342041 0.519433 -0.783069
-41.4702360414333 160.0731421936 911 -0.437495 0.499563 -0.747687
-41.6068010338859 163.09277717941 914 -0.471474 0.466182 -0.74859
-41.6978443621876 165.947608801779 916 -0.429535 0.366568 -0.825305
-41.7433660263385 168.62945598653 917 -0.263869 0.373987 -0.889105
-41.6978443621876 170.943518098246 916 -0.232616 0.389068 -0.891356
-41.6523226980368 173.252126160513 915 -0.262385 0.403372 -0.87661
-41.6978443621876 175.939427394714 916 -0.241897 0.434524 -0.867568
-41.8344093546402 179.021783949203 919 -0.220851 0.495067 -0.840318
-41.9709743470928 182.120502652042 922 -0.173621 0.495669 -0.850981
-42.0620176753945 185.035328818363 924 -0.170873 0.452878 -0.875045
-42.1075393395454 187.758081373992 925 -0.147128 0.445181 -0.883271
-42.1985826678471 190.691996713389 927 -0.232981 0.423056 -0.875639
-42.2896259961488 193.636820151687 929 -0.241739 0.438109 -0.865808
-42.3351476602997 196.381388905117 930 -0.249972 0.471326 -0.845793
-42.4261909886014 199.345301516491 932 -0.205707 0.557257 -0.804456
-42.4717126527523 202.103505393547 933 -0.202575 0.573921 -0.793459
-42.6537993093557 205.525194893886 937 -0.237902 0.530978 -0.813305
-42.7448426376574 208.524558826687 939 -0.248101 0.503071 -0.827868
-42.7903643018083 211.310032950994 940 -0.284709 0.527154 -0.800655
-42.7903643018083 213.873436192631 940 -0.218438 0.544167 -0.810041
-42.9269292942608 217.127595304804 943 -0.216858 0.586986 -0.780013
-43.0634942867134 220.398116565327 946 -0.308619 0.668412 -0.676742
-43.1545376150151 223.449293967906 948 -0.299542 0.729893 -0.614436
-43.518710928222 227.941977655508 956 -0.225836 0.879031 -0.419885
-44.5657092036918 236.095694574895 979 0.330359 -0.943525 0.024976
-39.6706307476365 6.15150653801848 927 -0.075479 -0.990357 -0.116173
-39.3282736322308 8.60455482536406 919 0.078421 -0.89188 -0.445421
-39.1998897139537 11.0744206112736 916 0.068866 -0.787581 -0.612351
-38.9859165168251 13.4982902417155 911 0.057664 -0.887178 -0.457811
-38.7719433196965 15.8948896249059 906 -0.010457 -0.833003 -0.55317
-38.557970122568 18.2642187608449 901 -0.013993 -0.796266 -0.604785
-38.4295862042908 20.6522738050001 898 -0.021708 -0.825571 -0.56388
-38.3867915648651 23.0754169057224 897 -0.005244 -0.819548 -0.572986
-38.0872290888851 25.3223931938896 890 -0.013429 -0.876208 -0.481745
-37.8732558917566 27.5935494397233 885 -0.0164 -0.823397 -0.567229
-37.7448719734794 29.9052477915744 882 0.021892 -0.816509 -0.576918
-37.7020773340537 32.2738503977937 881 0.035005 -0.794009 -0.606897
-37.5308987763509 34.5189182763087 877 0.049995 -0.84692 -0.529366
-37.359720218648 36.7421699570224 873 0.058646 -0.860113 -0.506722
-37.2313363003709 38.98841971547 870 0.040133 -0.860898 -0.507193
-37.1029523820937 41.2183073255667 867 0.028742 -0.831426 -0.554892
-36.9745684638166 43.4318327873125 864 0.066698 -0.864761 -0.497735
-36.8033899061137 45.576000750997 860 0.046539 -0.861016 -0.506443
-36.5894167089851 47.6426301424448 855 0.032106 -0.814177 -0.579728
-36.461032790708 49.7988880849625 852 -0.000172 -0.734172 -0.678964
-36.3754435118566 51.9999603030153 850 0.025742 -0.618528 -0.785341
-36.2470595935794 54.1262209735565 847 -0.08527 -0.292847 -0.952349
-36.161470314728 56.302749969083 845 -0.076887 0.171781 -0.98213
-36.161470314728 58.6070858618315 845 -0.04935 0.319335 -0.946356
-36.2470595935794 61.0555908001531 847 0.007698 0.462764 -0.886448
-36.3326488724309 63.5150038373752 849 0.061005 0.507252 -0.859636
-36.3754435118566 65.9077864012611 850 0.06461 0.554814 -0.829462
-36.4182381512823 68.3060230145973 851 0.068369 0.553525 -0.830021
-36.5038274301337 70.7927062990709 853 0.058288 0.571808 -0.818314
-36.5466220695594 73.2045780360329 854 0.060894 0.565853 -0.822254
-36.6750059878366 75.7987971647198 857 0.076935 0.502789 -0.860979
-36.760595266688 78.3182047458952 859 0.074489 0.444197 -0.892827
-36.8033899061137 80.7546197053835 860 0.072422 0.410377 -0.909036
-36.8461845455394 83.196488714322 861 0.049661 0.442339 -0.895472
-36.8461845455394 85.5444570026729 861 0.04148 0.487735 -0.872006
-36.8889791849651 87.9945070857869 862 0.020516 0.541131 -0.840688
-37.060157742668 90.7644376768159 866 0.010028 0.559918 -0.828487
-37.1029523820937 93.233576933006 867 0.022604 0.561093 -0.827444
-37.1885416609451 95.8184331075848 869 0.037749 0.52016 -0.853234
-37.1457470215194 98.0752277000732 868 0.043492 0.531316 -0.846057
-37.2741309397966 100.789435916667 871 0.050323 0.600655 -0.797923
-37.3169255792223 103.283118395383 872 0.026396 0.63627 -0.771015
-37.4881041369251 106.145767827067 876 -0.046587 0.657776 -0.751772
-37.5736934157766 108.782437471424 878 -0.02643 0.631669 -0.774788
-37.7448719734794 111.68326524926 882 -0.08278 0.559076 -0.824973
-37.7448719734794 114.088501056839 882 -0.021242 0.524605 -0.851081
-37.8732558917566 116.889974064637 885 -0.094763 0.425709 -0.899884
-37.8732558917566 119.303390946391 885 -0.061386 0.446806 -0.892523
-37.958845170608 121.991874060526 887 -0.094836 0.435707 -0.895079
-37.9160505311823 124.270484850815 886 -0.101375 0.423961 -0.899989
-37.9160505311823 126.686628757295 886 -0.130378 0.449952 -0.883485
-38.0016398100337 129.394201044505 888 -0.091284 0.521373 -0.848432
-38.1300237283108 132.261122645707 891 -0.074809 0.518651 -0.851707
-38.2156130071623 134.993238155443 893 -0.109157 0.482952 -0.868817
-38.3439969254394 137.890157028622 896 -0.150147 0.456784 -0.876815
-38.4295862042908 140.646815760885 898 -0.19995 0.451273 -0.869697
-38.5151754831423 143.414382592048 900 -0.199015 0.482509 -0.852982
-38.5151754831423 145.86870484468 900 -0.16758 0.502556 -0.848147
-38.557970122568 148.487830460753 901 -0.136957 0.537072 -0.832344
-38.6007647619937 151.112410126276 902 -0.132824 0.516759 -0.845765
-38.7291486802708 154.082958667034 905 -0.160584 0.504722 -0.848215
-38.8147379591223 156.896884918525 907 -0.206228 0.520393 -0.82865
-38.9859165168251 160.0731421936 911 -0.274679 0.536271 -0.798101
-39.1143004351023 163.09277717941 914 -0.278976 0.528838 -0.801562
-39.1998897139537 165.947608801779 916 -0.245398 0.443045 -0.862259
-39.157095074528 168.261670913495 915 -0.210656 0.425336 -0.880178
-39.157095074528 170.756898537004 915 -0.178558 0.409312 -0.894752
-39.157095074528 173.252126160513 915 -0.171478 0.41928 -0.891515
-39.2426843533794 176.131501005407 917 -0.144515 0.464063 -0.873934
-39.3710682716565 179.216584584621 920 -0.124799 0.518552 -0.84589
-39.456657550508 182.120502652042 922 -0.108724 0.509337 -0.853671
-39.5850414687851 185.235583503231 925 -0.080762 0.45906 -0.884727
-39.6278361082108 187.961063083585 926 -0.057152 0.452176 -0.890096
-39.6706307476365 190.691996713389 927 -0.055938 0.451069 -0.890734
-39.756220026488 193.636820151687 929 -0.032946 0.453121 -0.89084
-39.756220026488 196.170226121348 929 -0.005726 0.502112 -0.864784
-39.8418093053394 199.131411707997 931 0.001155 0.526175 -0.850376
-39.8846039447651 201.886888560328 932 0.005271 0.552328 -0.83361
-40.055782502468 205.305851035941 936 -0.07089 0.541055 -0.837994
-40.0985771418937 208.080417061348 937 -0.002917 0.573243 -0.81938
-40.2269610601708 211.310032950994 940 -0.018482 0.559068 -0.828916
-40.2269610601708 213.873436192631 940 0.034647 0.554384 -0.831539
-40.355344978448 217.127595304804 943 0.006133 0.588125 -0.808747
-40.4837288967251 220.398116565327 946 -0.016224 0.678142 -0.734752
-40.5693181755765 223.449293967906 948 -0.036714 0.776462 -0.629094
-40.9544699304079 228.180410686528 957 -0.116994 0.894073 -0.432372
-42.0243359160508 236.819174742132 982 0.223666 -0.972913 0.058424
-37.0625435980248 6.13823467925253 925 -0.015674 -0.999755 -0.015609
-36.7820702951209 8.59519187125594 918 0.000858 -0.882078 -0.471102
-36.6618674510192 11.0623306324404 915 0.06159 -0.780214 -0.622473
-36.4615293775163 13.4834732381571 910 0.045332 -0.885641 -0.462153
-36.2611913040135 15.8773455966224 905 -0.005286 -0.843519 -0.537074
-36.1009208452112 18.2642187608449 901 -0.030507 -0.795847 -0.604729
-36.0207856158101 20.6752718827339 899 0.0163 -0.826408 -0.562836
-35.9005827717084 23.0496918032634 896 0.00339 -0.824457 -0.565915
-35.7002446982055 25.3508453210737 891 0.021536 -0.879619 -0.475191
-35.4598390100021 27.5935494397233 885 0.011996 -0.824483 -0.56576
-35.3396361659004 29.9052477915744 882 0.043481 -0.829583 -0.556687
-35.2995685511999 32.2738503977937 881 0.039194 -0.786987 -0.615723
-35.1793657070982 34.5582785023934 878 0.060284 -0.847417 -0.527495
-35.0190952482959 36.7842572078323 874 0.043886 -0.888745 -0.456296
-34.8988924041942 39.033233991005 871 0.011464 -0.855806 -0.51717
-34.7386219453919 41.2183073255667 867 -0.008758 -0.841277 -0.540533
-34.6184191012902 43.4318327873125 864 0.015034 -0.851586 -0.523999
-34.4982162571885 45.6289961007075 861 0.026655 -0.874486 -0.484317
-34.3379457983863 47.754074891316 857 0.011079 -0.844547 -0.535366
-34.177675339584 49.8573374841233 853 0.008817 -0.806899 -0.590623
-34.0574724954823 51.9999603030153 850 -0.011911 -0.64276 -0.765975
-33.9372696513806 54.1262209735565 847 -0.083545 -0.301634 -0.949756
-33.8571344219794 56.302749969083 845 -0.115664 0.154338 -0.981224
-33.8571344219794 58.6070858618315 845 -0.0442 0.416176 -0.908209
-33.9372696513806 61.0555908001531 847 0.018695 0.490003 -0.87152
-34.0574724954823 63.5898153848868 850 0.076301 0.549456 -0.832031
-34.1376077248834 66.0628635457347 852 0.052082 0.547471 -0.835202
-34.177675339584 68.4665542085212 853 0.042393 0.55395 -0.83147
-34.2177429542846 70.875698920758 854 0.022479 0.571928 -0.819996
-34.2978781836857 73.3760173288573 856 0.030293 0.558492 -0.828957
-34.4180810277874 75.9756905069946 859 0.063342 0.488331 -0.870357
-34.458148642488 78.4093784417577 860 0.074168 0.427089 -0.901163
-34.4982162571885 80.8485204259711 861 0.092378 0.410405 -0.907212
-34.4982162571885 83.196488714322 861 0.083412 0.421061 -0.903189
-34.5382838718891 85.6438117727109 862 0.05707 0.471088 -0.880238
-34.5783514865897 88.09658888055 863 0.0319 0.533112 -0.845443
-34.6985543306914 90.7644376768159 866 0.008056 0.562051 -0.827064
-34.7386219453919 93.233576933006 867 0.015493 0.561 -0.827671
-34.8187571747931 95.8184331075848 869 0.030537 0.552 -0.833285
-34.7386219453919 97.9622378064095 867 0.04169 0.555058 -0.830766
-34.8588247894936 100.673718998278 870 0.100072 0.615593 -0.781685
-34.8988924041942 103.164674452269 871 0.088098 0.618296 -0.780992
-35.099230477697 106.145767827067 876 0.089388 0.627372 -0.773572
-35.2194333217987 108.906335463988 879 0.01838 0.629707 -0.776615
-35.379703780601 111.809890266549 883 0.008191 0.560295 -0.828253
-35.4197713953016 114.347205140868 884 0.015645 0.497286 -0.867445
-35.4598390100021 116.889974064637 885 0.014722 0.445748 -0.895037
-35.4598390100021 119.303390946391 885 0.018219 0.412141 -0.910938
-35.5399742394033 121.991874060526 887 -0.023805 0.427414 -0.903743
-35.5399742394033 124.41074499173 887 -0.022886 0.44057 -0.897427
-35.5399742394033 126.829615922935 887 -0.02732 0.498012 -0.86674
-35.6201094688044 129.539915234871 889 -0.025159 0.514488 -0.857128
-35.7002446982055 132.261122645707 891 -0.032653 0.517944 -0.854791
-35.7803799276067 134.993238155443 893 -0.070448 0.453079 -0.888682
-35.8204475423072 137.58236649954 894 -0.098179 0.433869 -0.895611
-35.9005827717084 140.333571182353 896 -0.14345 0.435101 -0.888881
-36.0207856158101 143.255033278057 899 -0.136076 0.496508 -0.8573
-36.1009208452112 146.030781183396 901 -0.086863 0.538924 -0.837864
-36.1409884599118 148.652633824194 902 -0.048986 0.533993 -0.844069
-36.1810560746124 151.279940514443 903 -0.043778 0.511798 -0.857989
-36.2611913040135 154.082958667034 905 -0.054084 0.496802 -0.866177
-36.3012589187141 156.723900480908 906 -0.080577 0.484552 -0.871044
-36.3813941481152 159.546007806574 908 -0.103246 0.523563 -0.845708
-36.5015969922169 162.557461718209 911 -0.14985 0.568207 -0.809127
-36.581732221618 165.404112266402 913 -0.16253 0.516686 -0.840607
-36.581732221618 167.89388584046 913 -0.13412 0.480002 -0.866954
-36.6217998363186 170.570278975761 914 -0.096348 0.445182 -0.890241
-36.7019350657197 173.44147274648 916 -0.03383 0.42884 -0.902747
-36.7420026804203 176.131501005407 917 0.013881 0.488017 -0.872724
-36.862205524522 179.216584584621 920 0.018926 0.546683 -0.837125
-36.9423407539231 182.120502652042 922 0.028257 0.532079 -0.846223
-37.0224759833243 185.035328818363 924 0.051828 0.490513 -0.869892
-37.0625435980248 187.758081373992 925 0.044687 0.454816 -0.889464
-37.1026112127254 190.486287979071 926 0.061401 0.458485 -0.886579
-37.142678827426 193.2199486336 927 0.083449 0.472139 -0.877566
-37.1827464421265 195.959063337579 928 0.110008 0.500889 -0.858492
-37.3029492862282 199.131411707997 931 0.163179 0.514445 -0.841854
-37.3830845156294 202.103505393547 933 0.201844 0.522543 -0.828376
-37.4632197450305 205.086507177997 935 0.155131 0.55942 -0.814238
-37.4632197450305 207.636275296009 935 0.157322 0.557065 -0.815431
-37.5433549744316 210.63563922881 937 0.13527 0.563819 -0.814745
-37.6635578185333 213.873436192631 940 0.185218 0.567754 -0.802091
-37.7837606626351 217.127595304804 943 0.211625 0.558919 -0.801763
-37.8638958920362 220.165137583757 945 0.172287 0.632485 -0.755169
-37.9039635067368 222.977881955315 946 0.146421 0.637573 -0.756348
-38.344707268443 228.180410686528 957 0.016216 0.887747 -0.460046
-39.54673570946 238.02497502086 987 0 -0.972131 0.234439
-34.57738631724 6.1448706086355 926 0.064109 -0.997782 -0.017918
-34.2786615974366 8.59519187125594 918 0.062346 -0.862367 -0.50243
-34.2039804174858 11.0744206112736 916 0.030998 -0.77284 -0.633844
-33.9799368776333 13.4834732381571 910 0.049371 -0.869707 -0.491093
-33.8305745177316 15.8948896249059 906 0.049741 -0.864915 -0.499448
-33.6812121578299 18.2844898138536 902 0.017083 -0.833129 -0.552815
-33.5691903879036 20.6752718827339 899 -0.000692 -0.815633 -0.57857
-33.4945092079528 23.0754169057224 897 0.016843 -0.825346 -0.564376
-33.3451468480511 25.407749575442 893 0.038777 -0.870561 -0.490531
-33.158443898174 27.6870868954511 888 0.025242 -0.833189 -0.552411
-33.0090815382723 29.9730601448432 884 0.000174 -0.808313 -0.588752
-32.9344003583215 32.3104835991533 882 0.012521 -0.812864 -0.582318
-32.8223785883952 34.5976387284781 879 0.018411 -0.832635 -0.553515
-32.6730162284935 36.8263444586421 875 -0.00238 -0.88752 -0.460763
-32.4863132786164 38.98841971547 870 -0.003719 -0.847139 -0.531359
-32.3369509187147 41.1707660253065 866 -0.052407 -0.829289 -0.556357
-32.2249291487885 43.3815644623272 863 -0.024826 -0.857101 -0.51455
-32.1129073788622 45.576000750997 860 0.014503 -0.8571 -0.514946
-31.9262044289851 47.6426301424448 855 -0.006575 -0.818882 -0.573925
-31.8141826590588 49.7988880849625 852 -0.005637 -0.793962 -0.607942
-31.7021608891326 51.9387838791294 849 -0.062249 -0.651533 -0.756062
-31.6274797091817 54.1262209735565 847 -0.071755 -0.316903 -0.94574
-31.5527985292309 56.302749969083 845 -0.075935 0.19823 -0.97721
-31.5154579392555 58.5377283637702 844 -0.044338 0.467389 -0.882939
-31.5527985292309 60.9114217545801 845 0.015149 0.557282 -0.830185
-31.6648202991571 63.4401922898636 848 0.058561 0.556389 -0.828856
-31.7768420690834 65.9853249734979 851 0.063676 0.531634 -0.844577
-31.8141826590588 68.3862886115593 852 0.036769 0.528235 -0.848302
-31.8515232490342 70.7927062990709 853 0.015651 0.56025 -0.828176
-31.9262044289851 73.2902976824451 855 -0.009309 0.575346 -0.817857
-32.0382261989114 75.8872438358572 858 0.003429 0.518135 -0.855292
-32.0755667888868 78.3182047458952 859 0.038102 0.474534 -0.879412
-32.1129073788622 80.7546197053835 860 0.067866 0.416093 -0.906786
-32.1129073788622 83.0998609690092 860 0.088731 0.398758 -0.912753
-32.187588558813 85.6438117727109 862 0.075815 0.460435 -0.88445
-32.2622697387639 88.1986706753131 864 0.050337 0.510384 -0.858472
-32.3742915086901 90.8692464963042 867 0.033395 0.574637 -0.817727
-32.4116320986656 93.3411127772194 868 0.02233 0.561665 -0.827063
-32.448972688641 95.8184331075848 869 0.040254 0.57215 -0.819161
-32.4116320986656 98.0752277000732 868 0.031552 0.579658 -0.814249
-32.5236538685918 100.789435916667 871 0.109785 0.628083 -0.770363
-32.5609944585673 103.283118395383 872 0.134778 0.630919 -0.764052
-32.6730162284935 106.024596859228 875 0.093626 0.611978 -0.785313
-32.8223785883952 108.906335463988 879 0.108906 0.578349 -0.808487
-32.9344003583215 111.68326524926 882 0.046887 0.555486 -0.830203
-33.0090815382723 114.347205140868 884 0.037237 0.50992 -0.859415
-33.0464221282477 116.889974064637 885 0.036108 0.450728 -0.891931
-33.0837627182231 119.438197037856 886 0.061352 0.403755 -0.912808
-33.1211033081986 121.991874060526 887 0.04697 0.4005 -0.915092
-33.158443898174 124.551005132645 888 0.032026 0.436653 -0.89906
-33.2331250781248 127.258577419856 890 0.021744 0.504158 -0.863338
-33.2704656681003 129.831343615601 891 -0.003967 0.509132 -0.860679
-33.3451468480511 132.558005075888 893 -0.022996 0.463578 -0.885758
-33.3451468480511 134.993238155443 893 -0.029989 0.433094 -0.90085
-33.3824874380265 137.58236649954 894 -0.05022 0.430981 -0.900963
-33.4571686179774 140.333571182353 896 -0.075322 0.430305 -0.899536
-33.5691903879036 143.255033278057 899 -0.039412 0.516474 -0.855396
-33.606530977879 145.86870484468 900 -0.021046 0.560916 -0.827605
-33.6812121578299 148.652633824194 902 0.023466 0.559579 -0.828445
-33.7558933377807 151.44747090261 904 0.034575 0.507979 -0.860675
-33.7932339277561 154.082958667034 905 0.026977 0.469643 -0.882444
-33.7932339277561 156.550916043291 905 0.07568 0.475546 -0.876429
-33.867915107707 159.370296344232 907 0.071946 0.517369 -0.852733
-33.9425962876578 162.200584744074 909 0.018226 0.579112 -0.815044
-34.0172774676087 165.041781242817 911 0.016505 0.56373 -0.825794
-34.0919586475595 167.89388584046 913 0.011467 0.513401 -0.858072
-34.1666398275104 170.756898537004 915 0.065807 0.485233 -0.871905
-34.2413210074612 173.630819332448 917 0.116981 0.462795 -0.878713
-34.316002187412 176.515648226793 919 0.14824 0.516821 -0.843161
-34.3533427773875 179.216584584621 920 0.17012 0.534336 -0.827976
-34.4653645473137 182.318030312185 923 0.175259 0.536259 -0.825658
-34.5027051372891 185.035328818363 924 0.185572 0.485517 -0.854304
-34.5400457272646 187.758081373992 925 0.186067 0.460365 -0.868011
-34.5400457272646 190.280579244752 925 0.214961 0.473589 -0.854111
-34.6147269072154 193.2199486336 927 0.211422 0.467261 -0.858468
-34.6520674971908 195.959063337579 928 0.235795 0.513494 -0.82506
-34.7640892671171 199.131411707997 931 0.300552 0.526104 -0.795539
-34.8761110370434 202.320122226766 934 0.329545 0.525074 -0.784664
-34.9507922169942 205.305851035941 936 0.294712 0.522421 -0.800139
-34.9507922169942 207.858346178678 936 0.253421 0.540473 -0.802288
-35.0628139869205 211.085235043599 939 0.263375 0.559854 -0.785619
-35.1748357568467 214.328486056871 942 0.279746 0.564852 -0.776327
-35.2495169367976 217.357847261649 944 0.295731 0.549247 -0.781582
-35.3241981167484 220.398116565327 946 0.266856 0.573331 -0.774648
-35.3615387067238 223.213587961611 947 0.246685 0.59612 -0.76406
-35.8096257864289 228.657276748569 959 0.037466 0.908681 -0.415806
-36.8925028957161 238.266135076605 988 0 -0.972131 0.234439
-32.0175478565043 6.13823467925253 925 0.016727 -0.997062 -0.074752
-31.8098664650027 8.60455482536406 919 0.079866 -0.879091 -0.469916
-31.7060257692518 11.0744206112736 916 0.035107 -0.768847 -0.638468
-31.5329579430005 13.4982902417155 911 0.045362 -0.872692 -0.48616
-31.3598901167491 15.8948896249059 906 0.040054 -0.849601 -0.525904
-31.1868222904977 18.2642187608449 901 0.016654 -0.83888 -0.544061
-31.0829815947469 20.6522738050001 898 0.00494 -0.81216 -0.583414
-30.9791408989961 23.0239667008044 895 0.007555 -0.833722 -0.552133
-30.9099137684955 25.407749575442 893 0.035593 -0.861621 -0.506302
-30.7714595074944 27.7182660473604 889 0.044833 -0.869875 -0.49123
-30.6330052464933 30.0069663214777 885 -0.050276 -0.847769 -0.527977
-30.5291645507425 32.3104835991533 882 -0.022128 -0.825508 -0.563956
-30.4253238549917 34.5976387284781 879 -0.06992 -0.828428 -0.555715
-30.2868695939906 36.8263444586421 875 -0.019131 -0.892275 -0.451087
-30.1138017677392 38.98841971547 870 -0.02629 -0.830479 -0.556429
-29.9753475067381 41.1707660253065 866 -0.037401 -0.829728 -0.556913
-29.836893245737 43.3312961373419 862 -0.07574 -0.842364 -0.53356
-29.6984389847359 45.4700100515761 858 -0.035185 -0.856156 -0.515518
-29.5945982889851 47.6426301424448 855 -0.045378 -0.829381 -0.556838
-29.5253711584845 49.8573374841233 853 -0.038172 -0.808307 -0.587522
-29.3869168974834 51.9387838791294 849 -0.086631 -0.642905 -0.761031
-29.2484626364823 53.9984140763344 845 -0.070128 -0.356812 -0.93154
-29.213849071232 56.2361194957468 844 -0.045357 0.299035 -0.953163
-29.213849071232 58.5377283637702 844 -0.008729 0.500625 -0.86562
-29.3176897669829 61.0555908001531 847 0.017363 0.542543 -0.839849
-29.3869168974834 63.5150038373752 849 0.046362 0.569794 -0.820479
-29.5253711584845 66.1404021179714 853 0.049893 0.512492 -0.857242
-29.5599847237348 68.5468198054831 854 0.043036 0.514754 -0.856257
-29.5945982889851 70.9586915424451 855 0.001474 0.548047 -0.836446
-29.5945982889851 73.2902976824451 855 -0.008828 0.558804 -0.829253
-29.7330525499862 75.9756905069946 859 0.008771 0.523811 -0.851789
-29.7676661152364 78.4093784417577 860 0.028203 0.479955 -0.87684
-29.8022796804867 80.8485204259711 861 0.060909 0.430988 -0.9003
-29.8022796804867 83.196488714322 861 0.083171 0.415722 -0.905681
-29.8715068109873 85.7431665427488 863 0.08728 0.462332 -0.882401
-29.9061203762375 88.1986706753131 864 0.085984 0.501118 -0.861097
-29.9753475067381 90.7644376768159 866 0.073686 0.55937 -0.825637
-29.9753475067381 93.1260410887926 866 0.071489 0.561813 -0.824169
-30.0445746372386 95.7081702386463 868 0.06099 0.55874 -0.827097
-30.0791882024889 98.1882175937369 869 0.081808 0.62146 -0.779163
-30.21764246349 101.020869753444 873 0.152704 0.638266 -0.754518
-30.2868695939906 103.638450224725 875 0.169165 0.603745 -0.779022
-30.3560967244911 106.266938794906 877 0.197542 0.557095 -0.806612
-30.4599374202419 109.030233456552 880 0.117702 0.546595 -0.829084
-30.5291645507425 111.68326524926 882 0.081511 0.523738 -0.847971
-30.598391681243 114.347205140868 884 0.040501 0.492138 -0.869574
-30.6330052464933 116.889974064637 885 0.031579 0.455607 -0.889621
-30.6676188117436 119.438197037856 886 0.058278 0.425212 -0.903216
-30.7022323769939 121.991874060526 887 0.075755 0.405974 -0.91074
-30.7714595074944 124.69126527356 889 0.084321 0.446187 -0.890958
-30.8060730727447 127.258577419856 890 0.063071 0.479358 -0.87535
-30.9099137684955 130.122771996332 893 0.006052 0.492075 -0.870532
-30.9445273337458 132.706446290978 894 0.004475 0.451449 -0.892286
-30.9445273337458 135.144406395259 894 0.002643 0.418557 -0.908187
-30.9791408989961 137.736261764081 895 0.007795 0.425221 -0.905056
-31.0137544642463 140.333571182353 896 0.004795 0.441945 -0.897029
-31.0829815947469 143.095683964066 898 0.009734 0.524587 -0.851301
-31.1175951599972 145.706628505964 899 0.034188 0.577251 -0.815851
-31.221435855748 148.652633824194 902 0.081458 0.568238 -0.818823
-31.3598901167491 151.782531678943 906 0.11625 0.532976 -0.838106
-31.3598901167491 154.253216079925 906 0.129609 0.474305 -0.870768
-31.3252765514988 156.550916043291 905 0.153325 0.480173 -0.863669
-31.3945036819994 159.370296344232 907 0.183622 0.502068 -0.84511
-31.4637308124999 162.200584744074 909 0.19987 0.549358 -0.811331
-31.5329579430005 165.041781242817 911 0.164552 0.548279 -0.819947
-31.6367986387513 168.077778376978 914 0.144704 0.512649 -0.846316
-31.7060257692518 170.943518098246 916 0.154073 0.517411 -0.841753
-31.7406393345021 173.630819332448 917 0.205764 0.501423 -0.840378
-31.7752528997524 176.3235746161 918 0.236105 0.51301 -0.825273
-31.8444800302529 179.216584584621 920 0.257828 0.528367 -0.808921
-31.9483207260038 182.318030312185 923 0.251147 0.519093 -0.816987
-32.0175478565043 185.235583503231 925 0.278905 0.481243 -0.831034
-32.0521614217546 187.961063083585 926 0.29219 0.457201 -0.839995
-32.0521614217546 190.486287979071 926 0.284683 0.456837 -0.842767
-32.1560021175054 193.636820151687 929 0.320386 0.503092 -0.802652
-32.225229248006 196.592551688886 931 0.360741 0.547169 -0.755296
-32.2944563785065 199.559191324985 933 0.395892 0.522524 -0.755142
-32.3636835090071 202.536739059985 935 0.389571 0.492807 -0.778059
-32.3982970742573 205.305851035941 936 0.37515 0.482614 -0.79142
-32.5021377700082 208.524558826687 939 0.332884 0.520832 -0.78608
-32.605978465759 211.759628765783 942 0.302893 0.572773 -0.7617
-32.7098191615098 215.011060853231 945 0.29856 0.549045 -0.780648
-32.7444327267601 217.818351175339 946 0.311816 0.538925 -0.782516
-32.7790462920104 220.631095546897 947 0.318354 0.526498 -0.788322
-32.8482734225109 223.684999974201 949 0.264277 0.62131 -0.737653
-33.1944090750137 228.657276748569 959 0.047622 0.89833 -0.436732
-34.1289753367711 237.783814965114 986 0 -0.972131 0.234439
-29.5269365262692 6.1448706086355 926 0.035325 -0.993679 -0.106553
-29.3037307425933 8.60455482536406 919 0.041508 -0.862062 -0.5051
-29.2080711210179 11.0744206112736 916 0.019914 -0.790352 -0.61233
-29.0805249589174 13.5131072452739 912 0.048779 -0.876603 -0.478735
-28.9529787968169 15.9299776814731 908 0.069467 -0.890033 -0.450573
-28.7935460941912 18.3047608668623 903 -0.010221 -0.814484 -0.580096
-28.6659999320907 20.6752718827339 899 0.007316 -0.80451 -0.593893
-28.5703403105153 23.0496918032634 896 0.006567 -0.83933 -0.543582
-28.4746806889399 25.407749575442 893 0.028215 -0.858337 -0.512309
-28.3152479863143 27.6870868954511 888 0.014905 -0.866362 -0.499193
-28.2195883647389 30.0069663214777 885 -0.055014 -0.854918 -0.515839
-28.1558152836886 32.3471168005129 883 -0.098103 -0.815496 -0.570388
-28.0601556621132 34.6369989545628 880 -0.098644 -0.820109 -0.56364
-27.8688364189625 36.7842572078323 874 -0.017808 -0.867312 -0.497447
-27.741290256862 38.98841971547 870 0.031939 -0.833404 -0.55174
-27.6137440947614 41.1707660253065 866 -0.093124 -0.821887 -0.561988
-27.5180844731861 43.3815644623272 863 -0.075179 -0.842372 -0.533627
-27.3905383110855 45.5230054012866 859 -0.067455 -0.849209 -0.523731
-27.2948786895102 47.6983525168804 856 0.005609 -0.852082 -0.523379
-27.1992190679348 49.8573374841233 853 -0.018556 -0.842207 -0.538835
-27.0716729058343 51.9387838791294 849 -0.102901 -0.637461 -0.76358
-26.9122402032086 53.9345106277233 844 -0.089794 -0.122021 -0.988457
-26.9122402032086 56.2361194957468 844 0.008821 0.313117 -0.949674
-26.9441267437337 58.6070858618315 845 0.02074 0.491913 -0.870398
-27.0397863653091 61.1276753229395 848 0.03124 0.559229 -0.828425
-27.0716729058343 63.5150038373752 849 0.049626 0.58915 -0.806498
-27.1354459868845 65.9853249734979 851 0.050683 0.525049 -0.849561
-27.1992190679348 68.4665542085212 853 0.04451 0.518221 -0.854088
-27.2311056084599 70.875698920758 854 0.026646 0.528294 -0.848643
-27.1992190679348 73.1188583896207 853 0.040612 0.536468 -0.842943
-27.3267652300353 75.7987971647198 857 0.022452 0.554634 -0.831791
-27.3905383110855 78.3182047458952 859 0.064066 0.519552 -0.852034
-27.4861979326609 80.9424211465588 862 0.092883 0.45998 -0.883058
-27.4543113921358 83.196488714322 861 0.107336 0.431941 -0.895492
-27.4861979326609 85.6438117727109 862 0.106457 0.455752 -0.883718
-27.5180844731861 88.09658888055 863 0.107346 0.483186 -0.868912
-27.5818575542363 90.6596288573277 865 0.083341 0.546765 -0.833128
-27.6137440947614 93.1260410887926 866 0.08574 0.569924 -0.817212
-27.6775171758117 95.7081702386463 868 0.101379 0.580598 -0.807854
-27.7731767973871 98.4141973810643 871 0.116589 0.65794 -0.74399
-27.9644960405379 101.483737427 877 0.188437 0.653332 -0.733245
-28.0282691215881 104.112225997181 879 0.210451 0.577826 -0.78856
-28.0282691215881 106.509280730584 879 0.19231 0.515071 -0.835295
-28.0282691215881 108.906335463988 879 0.126851 0.478427 -0.868917
-28.0920422026384 111.55664023197 881 0.072065 0.484452 -0.871844
-28.1558152836886 114.217853098853 883 0.033734 0.487072 -0.87271
-28.251474905264 117.022053131376 886 0.032062 0.461375 -0.886625
-28.2833614457891 119.573003129321 887 0.0645 0.438915 -0.89621
-28.2833614457891 121.991874060526 887 0.095165 0.411026 -0.906643
-28.3471345268394 124.69126527356 889 0.107796 0.44948 -0.886763
-28.4109076078897 127.401564585496 891 0.093741 0.480863 -0.87177
-28.4427941484148 129.977057805967 892 0.062718 0.47773 -0.876265
-28.4746806889399 132.558005075888 893 0.052423 0.4536 -0.889662
-28.4746806889399 134.993238155443 893 0.040887 0.418552 -0.907272
-28.5384537699902 137.736261764081 895 0.053751 0.420169 -0.905853
-28.5384537699902 140.176948893087 895 0.075775 0.439268 -0.895155
-28.6022268510404 142.936334650075 897 0.116942 0.532931 -0.838039
-28.6659999320907 145.706628505964 899 0.108166 0.598525 -0.793768
-28.7297730131409 148.487830460753 901 0.114498 0.593784 -0.796436
-28.9210922562917 151.950062067109 907 0.166815 0.555806 -0.814403
-28.8892057157666 154.253216079925 906 0.193654 0.517742 -0.833331
-28.9529787968169 157.069869356142 908 0.245378 0.521916 -0.816941
-29.0167518778671 159.897430731258 910 0.296417 0.479529 -0.825947
-29.0486384183922 162.557461718209 911 0.307061 0.515225 -0.80016
-29.1124114994425 165.404112266402 913 0.279607 0.512649 -0.811795
-29.1761845804928 168.261670913495 915 0.240996 0.5204 -0.81921
-29.2718442020681 171.316757220732 918 0.259843 0.519963 -0.813707
-29.2718442020681 173.820165918416 918 0.263583 0.527307 -0.807757
-29.3037307425933 176.515648226793 919 0.274284 0.527875 -0.803814
-29.3993903641687 179.606185855457 922 0.28891 0.526478 -0.799595
-29.495049985744 182.713085632471 925 0.311321 0.504519 -0.80532
-29.5269365262692 185.4358381881 926 0.310763 0.483026 -0.818604
-29.5907096073194 188.367026502772 928 0.318054 0.467987 -0.824518
-29.5588230667943 190.691996713389 927 0.328237 0.467094 -0.821026
-29.6863692288948 194.053691669775 931 0.344357 0.529618 -0.775192
-29.7501423099451 197.014877256424 933 0.348475 0.564356 -0.748377
-29.8458019315205 200.200860750468 936 0.349337 0.513723 -0.783614
-29.8776884720456 202.969972726424 937 0.348338 0.466103 -0.81327
-29.9414615530958 205.963882609775 939 0.339876 0.472873 -0.812942
-30.0052346341461 208.968700592026 941 0.322188 0.517224 -0.79289
